ncols         434
nrows         32
xllcorner     1758734.58894
yllcorner     520871.6483
cellsize      300
NODATA_value  -9999
0 0 0 0 0 0 0 0 0 0 0 0 0 0 0 0 0 0 0 0 0 0 0 0 0 0 0 0 0 0 0 0 0 0 0 0 0 0 0 0 0 0 0 0 0 0 0 0 0 0 0 0 0 0 0 0 0 0 0 0 0 0 0 0 0 0 0 0 0 0 0 0 0 0 0 0 0 0 0 0 0 0 0 0 0 0 0 0 0 0 0 0 0 0 0 0 0 0 0 0 0 0 0 0 0 0 0 0 0 0 0 0 0 0 0 0 0 0 0 0 0 0 0 0 0 0 0 0 0 0 0 0 0 0 0 0 0 0 0 0 0 0 0 0 0 0 0 0 0 0 0 0 0 0 0 0 0 0 0 0 0 0 0 26.01931 35.51372 31.18085 30.17219 28.37993 50.67823 68.11252 43.94069 29.342 36.328 46.90091 84.93967 120.3157 111.8565 160.6924 185.2081 168.5304 157.9655 140.8022 134.7776 170.0184 97.29182 157.9796 89.54149 128.2612 167.8611 139.8495 163.8418 180.429 229.0901 245.0228 283.8524 249.5111 249.138 296.91 338.6505 225.7641 219.66 200.1425 254.9213 352.7133 388.0238 460.14 498.0234 515.6347 485.2704 500.734 505.534 552.8597 578.8085 606.4584 731.9929 712.2309 736.3061 612.9288 572.1784 626.4177 637.2407 673.6483 649.2523 675.6885 598.2864 556.8977 570.9156 526.184 547.6443 511.6181 603.6652 614.2838 580.3682 532.6722 474.4806 530.1566 530.0821 495.4061 499.5001 410.6807 421.2699 425.9486 494.7325 475.6574 412.5771 444.3571 509.5788 471.716 443.1762 364.9684 359.4225 359.8291 380.7229 372.6258 375.4052 378.8085 382.315 411.8593 403.4614 435.2348 400.2881 405.0612 436.8806 419.7928 396.2624 414.3802 390.0435 411.9666 369.68 409.8829 429.4985 399.9238 399.499 388.3425 357.0484 354.4016 348.2986 336.0566 342.5487 327.0658 298.1044 289.4975 296.064 287.2981 295.5396 278.7983 268.4024 257.1261 264.6625 268.0055 243.5678 236.7946 224.7633 217.6095 215.0743 218.491 230.5031 228.2994 233.1169 240.1917 253.9083 280.1626 295.7695 272.5742 258.5928 266.1377 269.6727 263.0658 268.8542 284.3865 279.4975 281.2999 276.5477 279.275 274.0182 277.023 285.4193 273.096 260.2682 254.1419 260.496 265.7349 270.7408 277.9704 285.102 295.6129 312.3333 305.5798 274.2175 289.764 320.1692 277.5335 287.4719 353.6169 341.5832 338.1563 353.5025 380.4156 347.217 381.6074 412.3147 425.1809 400.9603 430.0613 382.5657 422.6121 411.3005 359.019 383.122 399.2624 382.899 401.0512 394.7032 397.4632 409.6132 409.0274 435.9114 435.5198 451.0627 428.7447 456.5049 431.8473 430.2264 432.967 404.4133 440.6082 423.4437 434.4279 435.0754 390.8852 362.9761 347.4535 338.3557 351.3401 393.8726 410.6778 406.9005 411.0764 420.9817 412.3947 425.855 401.1153 415.3334 405.4831 427.1107 442.8701 431.8183 401.63 415.2838 410.4963 411.2668 413.7936 408.1618 364.8783 354.2128 380.4615 348.2236 353.537 345.4383 342.8021 346.8938 344.9492 349.0454 350.6392 348.1412 349.435 364.3682 381.4017 393.4517 422.3051 441.5355 483.2458 450.648 452.014 499.3194 504.3687 537.1539 480.7034 579.8504 629.5682 591.9578 606.2467 630.6938 638.4387 678.6138 777.2885 750.44 694.4794 624.3001 620.926 628.8396 612.0878 575.1321 622.3021
0 0 0 0 0 0 0 0 0 0 0 0 0 0 0 0 0 0 0 0 0 0 0 0 0 0 0 0 0 0 0 0 0 0 0 0 0 0 0 0 0 0 0 0 0 0 0 0 0 0 0 0 0 0 0 0 0 0 0 0 0 0 0 0 0 0 0 0 0 0 0 0 0 0 0 0 0 0 0 0 0 0 0 0 0 0 0 0 0 0 0 0 0 0 0 0 0 0 0 0 0 0 0 0 0 0 0 0 0 0 0 0 0 0 0 0 0 0 0 0 0 0 0 0 0 0 0 0 0 0 0 0 0 0 0 0 0 0 0 0 0 0 0 0 0 0 0 0 0 0 0 0 0 0 0 0 0 0 0 0 0 0 0 19.36192 26.51159 46.85596 40.8629 57.74712 52.35083 57.41232 42.36588 75.34945 45.96924 63.22117 101.2568 113.3198 131.5124 157.6767 168.908 181.9608 105.2992 78.92558 167.7121 117.6669 107.4494 135.9963 66.16231 137.469 102.4168 131.0225 177.8241 131.5701 166.2961 210.2925 221.419 199.9629 168.5944 186.3851 243.032 127.8585 145.6255 257.8073 314.5549 333.9989 410.5575 455.4827 441.4538 439.9734 428.9081 402.291 428.3547 469.2113 564.0468 620.1427 642.0689 642.4024 607.5841 583.5531 533.4259 556.7484 597.2363 695.5557 657.9414 611.2802 612.7791 600.4801 566.139 580.1872 612.4811 563.1808 555.5456 619.1822 642.9045 584.8164 534.1558 466.6514 506.7084 485.5258 484.4178 468.4406 371.2016 423.3913 524.6917 516.2531 422.1921 407.033 426.8167 426.7517 411.198 377.5143 350.1358 348.138 349.1866 354.6252 362.2504 359.5773 401.105 394.2655 399.1538 390.0959 396.174 435.5602 409.6277 430.9042 419.1014 384.8822 380.1729 395.0875 364.8175 392.2083 406.8232 442.0558 442.4734 424.1214 381.896 358.0163 355.3597 339.2119 354.3213 313.1957 303.7347 295.4665 282.7019 281.7111 299.8212 284.6148 267.16 244.2538 256.2351 255.0895 246.8472 246.2818 225.8069 214.7029 216.9374 219.6762 231.0725 247.0206 239.3568 239.8488 244.3 244.5241 256.7181 252.9604 256.95 253.1717 256.6275 263.9256 267.67 281.1714 274.9074 274.7509 274.3485 273.4738 281.0283 279.9529 284.1289 313.2148 257.6014 267.4709 262.4897 271.8656 256.6832 268.8568 272.0143 265.89 317.3924 306.1662 268.9619 317.4395 307.8975 293.5694 280.2034 320.8488 321.5529 330.5922 330.3461 336.6085 353.6602 389.4756 421.648 420.2068 392.1216 430.0019 402.6998 436.1683 424.7771 390.489 364.0408 372.1089 378.3047 384.6501 403.4934 430.9818 400.6206 405.2121 403.0205 429.7279 430.7686 432.081 438.085 443.9749 451.3873 427.4494 421.4302 450.8745 429.7151 443.1286 390.771 386.1642 353.5744 342.8741 342.034 377.9229 390.0768 396.9701 403.3365 403.2871 427.9406 427.5048 404.9136 410.4323 421.6296 420.5551 424.5151 432.5134 428.8294 423.6382 419.6618 414.212 416.7845 418.9502 418.418 361.6938 398.9019 403.2473 372.2408 377.881 368.0282 344.2059 354.4292 354.1837 349.5327 345.5838 345.8722 346.2982 349.627 358.1099 381.6986 419.2686 437.3143 482.3075 422.362 483.5477 428.8113 513.2215 475.6307 516.7118 551.5182 589.5139 551.6096 634.6152 633.0425 678.7833 651.7672 773.2258 686.0706 721.6018 624.876 597.8353 611.4048 579.6044 603.2856 604.8593
0 0 0 0 0 0 0 0 0 0 0 0 0 0 0 0 0 0 0 0 0 0 0 0 0 0 0 0 0 0 0 0 0 0 0 0 0 0 0 0 0 0 0 0 0 0 0 0 0 0 0 0 0 0 0 0 0 0 0 0 0 0 0 0 0 0 0 0 0 0 0 0 0 0 0 0 0 0 0 0 0 0 0 0 0 0 0 0 0 0 0 0 0 0 0 0 0 0 0 0 0 0 0 0 0 0 0 0 0 0 0 0 0 0 0 0 0 0 0 0 0 0 0 0 0 0 0 0 0 0 0 0 0 0 0 0 0 0 0 0 0 0 0 0 0 0 0 0 0 0 0 0 0 0 0 0 0 0 0 0 0 0 0 12.29645 8.246036 41.12067 64.98008 60.29617 67.72742 65.63829 70.69138 76.50506 64.40018 90.18705 67.89852 90.33413 112.0882 144.2905 164.7657 142.8271 144.7792 65.08057 112.5053 64.38103 157.5428 91.89451 71.41512 75.84715 130.4254 123.4696 166.6891 138.8968 124.0356 158.5159 167.9427 130.1535 127.7499 141.3426 131.7077 97.58397 168.3588 338.4509 382.4915 425.3277 431.546 340.0909 379.1659 356.2416 383.4366 416.8512 376.5994 448.016 515.9905 569.619 610.8373 623.416 524.7424 548.5449 493.7784 470.3072 583.2152 672.6163 697.998 645.8427 692.5591 639.1701 556.5359 608.5889 695.3439 665.6375 564.5126 509.8854 566.3243 617.0674 596.5944 516.7822 422.1247 417.8148 419.6069 436.7426 382.4533 420.6809 442.6583 441.3994 421.8533 406.0971 431.3681 362.1949 373.0191 391.9903 339.3765 340.9703 343.8759 373.0171 375.2325 402.402 404.3959 398.7293 385.5396 389.3765 414.2626 440.1591 442.4032 399.4285 407.3992 410.1029 414.7249 365.4264 347.366 370.8418 365.0509 429.5857 431.6237 406.9825 391.6168 362.4525 374.03 337.6034 335.2626 355.9981 321.4294 287.6445 281.9371 286.6535 270.8422 276.6262 273.9611 275.7005 272.7928 242.0035 238.9533 233.6932 220.6528 215.8754 219.3351 221.1498 225.6961 229.892 245.094 257.3591 243.3391 246.8003 254.473 283.7151 284.1316 266.8824 266.3174 262.7821 267.9785 270.929 268.8879 274.9298 278.3338 278.9996 276.4971 287.5602 297.0082 292.8913 259.344 280.7792 312.9272 318.8888 302.8032 262.2933 265.2186 273.0772 273.9874 276.2854 284.4176 345.8764 333.2213 302.7301 296.3708 286.5306 298.9653 311.6653 317.1852 340.2062 364.0411 376.635 366.7819 412.4639 404.1299 412.8631 430.3444 429.9936 413.3766 396.3496 406.1905 415.2872 375.2854 383.1711 403.6541 415.3542 418.2759 427.3067 436.1171 457.7747 438.6105 435.4503 423.2639 448.5483 465.4994 443.7568 425.0254 454.3819 437.6032 432.5898 424.5822 380.1032 351.7382 345.1024 371.3745 386.3761 398.4883 392.9854 413.9928 418.2681 426.5469 429.6786 427.2497 407.3436 421.7924 429.0561 429.977 437.5365 441.5822 419.1519 419.8965 401.5074 424.21 422.117 406.0353 361.1164 403.6743 365.988 383.0545 384.5722 347.356 345.5227 348.0031 389.0488 373.2718 390.5052 348.2651 348.4964 347.7324 347.8815 361.6526 384.2077 397.9508 422.5267 414.8471 418.1564 504.7461 471.0202 485.2103 533.9158 544.7248 516.9357 591.3577 549.0073 559.7673 623.1304 705.1077 718.8365 728.948 738.2374 617.9476 567.3784 583.9921 557.275 611.6501 586.0464
0 0 0 0 0 0 0 0 0 0 0 0 0 0 0 0 0 0 0 0 0 0 0 0 0 0 0 0 0 0 0 0 0 0 0 0 0 0 0 0 0 0 0 0 0 0 0 0 0 0 0 0 0 0 0 0 0 0 0 0 0 0 0 0 0 0 0 0 0 0 0 0 0 0 0 0 0 0 0 0 0 0 0 0 0 0 0 0 0 0 0 0 0 0 0 0 0 0 0 0 0 0 0 0 0 0 0 0 0 0 0 0 0 0 0 0 0 0 0 0 0 0 0 0 0 0 0 0 0 0 0 0 0 0 0 0 0 0 0 0 0 0 0 0 0 0 0 0 0 0 0 0 0 0 0 0 0 0 0 0 0 0 0 0 4.150522 21.25204 54.98326 70.81956 74.03241 86.52087 83.66518 77.81973 85.06865 88.73147 97.54055 121.1704 138.5363 133.8955 120.8317 128.5904 74.94064 54.12472 70.47234 87.67971 153.3223 108.2574 76.0901 86.59834 100.8309 83.98269 124.4204 131.468 90.81814 95.28809 129.1483 94.53041 94.49012 123.9713 78.80917 89.12091 163.7787 254.4948 321.7025 363.2963 330.9078 346.1544 357.6231 318.259 327.0917 328.6428 329.0147 377.5377 435.7036 586.105 563.1121 513.0992 484.5375 428.4441 426.3048 478.4361 595.046 609.4911 651.0328 711.5167 663.7826 658.3181 629.23 653.3868 689.0162 691.1524 649.277 579.3668 486.5161 549.8228 606.6146 559.8985 459.1805 427.2652 406.3098 374.5937 399.1565 357.6665 368.4318 364.6566 382.6274 400.0259 418.88 370.4114 362.7557 385.419 337.1167 369.3866 407.636 397.1003 403.8592 411.2722 399.9897 390.5484 380.4166 386.1402 399.3489 419.307 414.4181 408.0529 389.6522 421.735 390.7889 380.1639 343.6381 366.7841 393.2164 388.0597 371.4557 396.0934 377.7906 334.3088 358.1431 325.0536 317.7449 321.2504 321.4702 293.6858 286.606 275.9322 271.3447 270.6995 266.1342 268.1241 260.6589 270.0696 253.5559 240.0945 234.4233 219.4892 221.7415 222.0448 231.7738 273.384 295.35 251.8907 269.3922 275.9087 246.6711 254.8374 259.4825 271.4218 263.0676 262.6739 263.7545 272.1383 279.9504 284.0703 285.2434 282.1451 294.2841 290.6283 282.4835 285.0499 260.2983 285.7866 321.5966 340.6778 342.5506 313.6926 290.6869 284.8446 268.396 277.0153 296.554 345.3097 323.849 309.7851 294.079 283.372 305.9196 289.5901 288.9263 294.062 308.4733 320.5338 401.2292 412.6934 408.4847 435.7311 405.0482 410.7177 396.7718 415.4625 390.4955 409.4468 397.923 381.4179 405.206 396.965 406.2196 431.4107 438.8521 419.0403 448.4029 471.1429 461.918 441.5526 456.6014 451.3345 432.8879 449.3637 448.6733 428.352 415.4683 392.9754 354.3961 346.4135 352.0062 385.3788 368.8857 397.9862 405.1285 396.7678 430.1187 418.9779 434.6398 408.3648 433.8803 427.3541 433.7381 421.1018 423.8347 424.5664 422.768 421.0019 422.637 401.1135 371.2939 367.3857 402.0212 370.6065 428.5537 375.6169 347.5778 346.6837 360.0418 405.6452 407.6075 402.8742 396.1297 368.9653 361.5421 348.2086 353.5137 364.9106 376.7473 396.6497 422.844 423.578 443.9013 444.9055 526.7479 452.8024 550.4525 499.3645 522.1041 595.782 595.0879 612.2192 629.5329 672.8295 690.1362 695.7488 625.7306 581.6233 551.2614 604.3083 565.0443 561.8906
0 0 0 0 0 0 0 0 0 0 0 0 0 0 0 0 0 0 0 0 0 0 0 0 0 0 0 0 0 0 0 0 0 0 0 0 0 0 0 0 0 0 0 0 0 0 0 0 0 0 0 0 0 0 0 0 0 0 0 0 0 0 0 0 0 0 0 0 0 0 0 0 0 0 0 0 0 0 0 0 0 0 0 0 0 0 0 0 0 0 0 0 0 0 0 0 0 0 0 0 0 0 0 0 0 0 0 0 0 0 0 0 0 0 0 0 0 0 0 0 0 0 0 0 0 0 0 0 0 0 0 0 0 0 0 0 0 0 0 0 0 0 0 0 0 0 0 0 0 0 0 0 0 0 0 0 0 0 0 0 0 0 0 0 0 7.772689 26.31884 53.7396 76.30974 84.25273 88.91293 88.312 86.06844 84.6216 96.98482 122.3631 122.6265 171.8723 125.9927 55.31638 59.20814 91.58612 45.87651 102.3308 114.6419 56.64339 56.55626 98.54597 82.25739 78.4757 74.20567 108.3248 74.67125 73.77865 72.10221 74.75609 75.60867 94.40673 113.8083 81.06364 110.649 172.3063 240.8968 283.1942 244.0409 342.4863 343.7441 247.8974 270.0236 284.0026 296.1166 392.1476 473.3827 574.6698 522.4515 474.2715 430.0896 378.4029 358.4114 436.3296 482.043 604.7813 608.0851 622.4586 642.5337 624.9702 685.4499 642.4974 719.9628 670.0349 693.9222 660.3093 584.1647 486.2287 518.9711 574.1815 478.2143 543.0377 505.4975 427.8429 450.0271 466.3402 355.3742 350.1544 350.3191 369.7411 366.1255 363.0822 340.4566 367.359 344.4674 390.2784 474.3735 417.7756 363.455 419.2023 428.1002 410.9201 367.786 365.9864 379.1255 381.5285 379.1552 384.8761 373.7388 383.1487 394.0322 373.6097 364.2754 339.709 355.8421 388.5966 383.7157 349.9786 380.0969 361.5819 338.935 358.8985 308.5721 314.9688 307.2729 287.4521 285.8647 277.5971 270.3962 265.2315 265.4202 259.0863 272.488 247.1353 247.1812 240.414 236.1102 236.5797 220.2196 224.0251 234.1556 265.3585 303.5284 297.5341 250.2053 281.9456 272.1303 268.4692 276.25 256.8396 260.8643 264.5903 276.541 268.4432 269.1605 274.7521 271.5933 280.6624 293.6563 293.6203 299.9715 288.7707 269.037 288.2196 318.8971 350.3831 341.343 361.2357 353.3204 320.3715 292.7728 296.2049 310.7036 348.7222 323.1814 332.5434 331.35 283.9199 295.8806 293.5558 308.0318 314.5433 302.9331 309.4793 391.0245 427.9553 408.4627 419.7067 396.7839 405.9706 388.2078 400.9567 410.2618 408.8849 432.1139 400.6693 424.6225 414.5995 438.7152 454.8901 436.2421 447.6644 455.5755 441.2339 472.0019 459.761 453.1047 432.973 440.5878 436.5519 445.8058 447.9463 416.0371 401.0584 390.6647 349.5765 349.847 351.5876 377.9028 406.3717 414.7817 425.3375 426.0093 430.3908 417.7403 412.0085 413.5579 431.7075 437.4101 428.9587 413.4054 435.136 435.3621 433.8988 397.6992 372.401 415.0512 413.7782 397.1514 379.6303 395.5329 378.1845 348.9098 347.7387 363.4255 410.5705 393.4302 412.365 369.1141 382.953 374.6531 348.3759 348.5999 355.5455 358.5205 374.988 376.3981 392.5559 438.9724 514.4856 479.3546 446.9169 542.366 479.2936 504.1417 517.3169 551.6417 522.1461 608.4176 638.6071 688.9263 714.2448 627.6525 537.4866 581.7631 559.7538 550.3176 602.3801
0 0 0 0 0 0 0 0 0 0 0 0 0 0 0 0 0 0 0 0 0 0 0 0 0 0 0 0 0 0 0 0 0 0 0 0 0 0 0 0 0 0 0 0 0 0 0 0 0 0 0 0 0 0 0 0 0 0 0 0 0 0 0 0 0 0 0 0 0 0 0 0 0 0 0 0 0 0 0 0 0 0 0 0 0 0 0 0 0 0 0 0 0 0 0 0 0 0 0 0 0 0 0 0 0 0 0 0 0 0 0 0 0 0 0 0 0 0 0 0 0 0 0 0 0 0 0 0 0 0 0 0 0 0 0 0 0 0 0 0 0 0 0 0 0 0 0 0 0 0 0 0 0 0 0 0 0 0 0 0 0 0 0 0 0 0 18.56674 57.51304 63.34148 69.84438 87.13114 97.26981 99.10959 97.36273 98.09852 108.0954 119.0139 127.9771 132.0713 83.60954 37.89196 50.44622 48.40334 57.80256 75.22937 48.52082 51.73326 57.34835 86.18349 53.17995 59.23956 50.95252 57.75338 61.29865 74.58153 74.33662 104.8448 135.7226 178.1292 129.4221 90.85455 107.4061 131.8528 171.6932 161.6382 204.8303 265.3208 207.3121 215.7956 303.0906 409.3757 416.9057 520.9226 539.4383 467.7556 455.2595 420.6431 306.7494 361.6042 392.4225 422.3196 500.1744 522.4266 535.9332 532.0782 576.1011 641.2426 676.0824 715.0787 630.9426 655.8821 603.6516 639.5095 593.4869 472.9857 490.7433 460.4674 475.7133 490.5833 476.4352 503.4694 473.5882 352.3605 425.0223 462.1512 385.9278 363.1811 390.4547 342.1875 332.0084 389.0828 411.6113 435.6549 411.1614 344.5527 349.117 355.1462 368.1645 393.3422 377.9021 342.0877 362.2017 369.5857 370.7167 377.7715 367.5687 370.5623 390.759 349.1941 320.4153 347.4034 365.1016 385.813 337.0419 357.472 312.5847 336.6432 326.1105 330.1534 299.4751 290.3913 295.5646 286.2189 272.9907 263.0738 258.3853 263.5201 254.4593 260.5488 266.2496 243.652 238.6776 236.0274 233.9202 224.506 221.323 254.6148 263.9052 286.3988 301.9483 294.5689 276.9657 288.5193 277.2276 313.1302 288.8188 283.3876 269.3369 262.8601 269.6374 282.1946 293.0917 294.6908 292.7886 287.385 288.3281 300.7639 268.6173 273.4825 293.5552 333.3734 302.5186 336.7817 328.193 360.3799 359.4568 340.3203 356.8002 377.6256 373.8345 399.488 345.2088 348.5338 294.4695 285.6646 310.5144 303.5833 299.3816 296.4629 327.477 396.5566 407.5218 415.7505 399.1506 409.741 377.6795 372.6646 388.7482 413.5502 429.9012 435.2232 426.1203 399.3735 395.0336 423.4698 444.3846 452.2949 450.3759 456.3438 449.4702 459.7745 450.4404 438.1802 433.9213 441.5305 452.4506 440.4007 426.1092 426.4495 414.6805 372.791 365.8787 358.6228 350.8355 370.8139 407.0229 393.6043 415.8893 442.445 447.4187 427.5282 428.9088 433.8673 445.8455 444.6035 433.8141 429.8374 433.5515 434.6025 419.4362 379.5335 390.3676 427.2776 407.6552 417.308 416.8785 397.3552 416.6397 348.6597 348.1592 366.3974 399.0891 422.4935 407.4612 400.3003 405.0255 372.2537 352.2564 351.2408 352.9297 356.279 363.7563 371.6952 404.6627 436.9343 467.5361 449.292 512.4036 503.8335 483.4528 470.9424 506.7887 484.1404 568.4324 570.582 610.1382 659.8247 591.2549 579.3812 555.7873 575.8221 571.2833 550.8556 610.7429
0 0 0 0 0 0 0 0 0 0 0 0 0 0 0 0 0 0 0 0 0 0 0 0 0 0 0 0 0 0 0 0 0 0 0 0 0 0 0 0 0 0 0 0 0 0 0 0 0 0 0 0 0 0 0 0 0 0 0 0 0 0 0 0 0 0 0 0 0 0 0 0 0 0 0 0 0 0 0 0 0 0 0 0 0 0 0 0 0 0 0 0 0 0 0 0 0 0 0 0 0 0 0 0 0 0 0 0 0 0 0 0 0 0 0 0 0 0 0 0 0 0 0 0 0 0 0 0 0 0 0 0 0 0 0 0 0 0 0 0 0 0 0 0 0 0 0 0 0 0 0 0 0 0 0 0 0 0 0 0 0 0 0 0 0 0 15.63531 35.64677 60.87358 75.22649 75.44283 85.24886 94.52196 101.1799 87.75522 103.0488 107.149 82.46771 64.41589 60.37117 33.69443 34.66044 36.91196 43.10895 40.46193 44.12662 57.28519 50.23573 50.15482 56.78432 57.66989 67.991 98.57051 130.2277 152.2327 132.7656 198.8485 190.7162 207.2312 161.6616 149.0272 118.1191 96.14693 144.4372 105.9897 134.0923 192.1784 180.5249 217.5056 266.6772 452.1063 486.7874 458.9751 545.0498 489.9186 453.6875 356.7505 283.9636 300.1568 407.9562 369.2509 435.824 424.4854 443.381 466.6417 546.5393 631.4425 639.6038 612.5031 620.8995 621.512 565.5674 573.0763 569.6896 528.8845 472.5365 492.2449 441.2905 418.8374 396.9209 444.6288 386.5851 403.3421 412.5962 514.4615 531.3309 435.2828 455.4369 450.4449 365.2839 331.1627 338.8915 330.0519 321.3961 317.8486 324.595 324.0891 328.7468 347.5046 391.1731 367.8072 334.6076 360.8631 347.3905 374.9712 349.5992 351.5999 365.5212 347.5618 317.3812 349.7195 350.088 336.1529 327.0948 328.0138 326.1926 345.0734 316.2815 306.3536 297.8365 299.1755 280.2372 281.3944 279.0518 284.9864 256.9845 251.1532 244.3015 256.2169 247.5826 241.8797 239.7578 236.1015 233.0803 228.7983 224.1165 224.2348 279.4218 279.4597 315.2391 294.6739 282.1478 269.8077 282.1555 302.9318 338.2633 305.8051 285.919 274.6348 279.788 268.9395 280.28 284.4373 287.1013 284.8215 298.7184 302.2239 288.4822 277.5148 293.094 306.602 308.6808 328.9196 331.365 339.2457 365.288 371.012 362.4699 387.7719 408.0301 375.1453 376.6158 386.0836 379.6872 332.3998 323.9856 303.9553 310.399 320.1848 394.2654 361.6202 409.6998 415.0569 383.7204 405.0962 381.8429 406.3035 398.9491 398.8264 419.2813 423.4075 423.6855 406.9732 445.0766 422.8744 402.8394 430.0494 469.2198 472.2921 460.5053 455.9224 426.8354 416.9654 431.2541 410.6275 436.0595 436.9833 417.1186 427.181 421.8651 381.4486 380.0963 359.9216 356.4486 363.2848 394.4332 389.4662 412.7122 425.1589 432.8227 443.0739 440.6187 427.9908 438.5762 433.2612 425.8447 436.5052 426.4427 426.2388 409.5131 393.3187 441.8052 428.4196 412.197 417.8813 427.9869 388.0694 394.4475 353.8891 350.6966 351.7985 397.3208 440.7845 403.5179 410.4475 408.8989 399.2453 354.4758 351.6446 353.0069 354.0479 353.4163 360.3759 371.9564 412.1345 452.9685 409.2748 462.093 446.9881 489.6243 440.9468 491.3393 517.0717 524.6511 585.9305 567.3784 607.4173 584.4194 580.8976 557.4863 551.4299 531.5267 549.827 576.3167
0 0 0 0 0 0 0 0 0 0 0 0 0 0 0 0 0 0 0 0 0 0 0 0 0 0 0 0 0 0 0 0 0 0 0 0 0 0 0 0 0 0 0 0 0 0 0 0 0 0 0 0 0 0 0 0 0 0 0 0 0 0 0 0 0 0 0 0 0 0 0 0 0 0 0 0 0 0 0 0 0 0 0 0 0 0 0 0 0 0 0 0 0 0 0 0 0 0 0 0 0 0 0 0 0 0 0 0 0 0 0 0 0 0 0 0 0 0 0 0 0 0 0 0 0 0 0 0 0 0 0 0 0 0 0 0 0 0 0 0 0 0 0 0 0 0 0 0 0 0 0 0 0 0 0 0 0 0 0 0 0 0 0 0 0 0 1.735608 8.91231 8.023602 23.73179 59.77859 74.11131 81.7151 83.99473 73.69061 88.5267 58.86801 49.86334 30.45457 38.68216 23.5711 27.49587 29.567 32.5161 39.0013 38.46099 38.51682 46.8172 71.46864 134.7664 107.0719 140.1312 153.0528 162.3937 187.3052 224.2189 162.8592 148.5883 206.8029 157.7647 176.0515 156.0284 150.7283 130.0208 138.347 143.7505 142.8257 142.5213 233.2416 321.0078 419.5177 422.3234 404.9867 546.6447 454.6497 483.2935 379.9935 308.7477 291.3512 269.5234 374.2626 360.51 368.4009 383.4014 424.0853 508.0351 554.6946 634.9954 607.7121 556.3152 594.749 586.5174 503.113 520.4932 519.1437 498.5623 522.0948 520.8392 548.3267 458.5099 406.3901 358.7513 425.4564 485.9974 463.0898 535.7728 502.3814 531.2023 555.1488 422.4084 410.286 407.5674 375.5625 385.8647 405.2068 327.977 313.5026 326.5313 410.7828 396.8212 377.0472 332.7043 326.5276 333.5723 346.4973 341.9264 358.4798 358.3201 353.8195 310.0304 337.7707 340.7315 333.45 328.659 310.976 306.0649 308.426 304.7683 341.3328 277.7056 283.1219 286.9149 279.4878 282.0942 281.2208 273.6988 256.5447 252.9651 245.305 244.775 239.0268 233.4283 238.1854 234.483 228.6781 223.9501 222.8808 256.0208 282.2889 324.7243 298.2243 284.3445 269.7087 276.0333 284.2496 304.4178 321.602 280.6571 286.7734 286.2701 287.2791 281.3989 287.1993 286.063 285.9873 288.2202 293.7041 292.2672 274.6811 284.5376 292.0385 303.5733 309.1576 309.1572 314.3116 318.3302 334.8185 348.786 365.4981 362.1068 374.228 385.508 377.7522 364.4229 356.0216 312.1468 305.571 301.9302 335.5585 359.7661 364.9536 365.3642 403.7914 367.9849 386.7292 372.0503 396.9258 383.1644 384.8098 399.3026 388.6166 406.6922 419.7788 424.6198 459.3665 460.3156 422.8389 454.2303 472.6873 463.9355 453.1799 460.2435 427.1103 422.6429 425.7484 404.7207 394.1897 403.1504 406.1467 392.6685 375.4682 378.1588 409.1794 368.1313 355.0343 382.5583 405.0884 439.8389 438.6022 438.0941 440.9284 428.7076 434.1638 427.2318 433.1731 427.9927 427.8234 427.1754 410.0974 386.0286 438.5485 442.3253 444.2247 420.051 425.9204 428.6034 403.6913 419.1815 354.1483 352.7465 352.1399 382.3431 435.6324 431.6589 432.6159 414.9393 423.1343 399.2962 378.7841 381.6423 381.1645 364.3249 356.6031 363.2887 377.193 409.2673 437.5562 428.7102 450.4426 422.9259 480.7685 484.2702 491.622 515.5102 522.5201 520.9219 618.712 627.2396 587.0986 535.8751 505.3852 570.1812 582.1374 553.8859
0 0 0 0 0 0 0 0 0 0 0 0 0 0 0 0 0 0 0 0 0 0 0 0 0 0 0 0 0 0 0 0 0 0 0 0 0 0 0 0 0 0 0 0 0 0 0 0 0 0 0 0 0 0 0 0 0 0 0 0 0 0 0 0 0 0 0 0 0 0 0 0 0 0 0 0 0 0 0 0 0 0 0 0 0 0 0 0 0 0 0 0 0 0 0 0 0 0 0 0 0 0 0 0 0 0 0 0 0 0 0 0 0 0 0 0 0 0 0 0 0 0 0 0 0 0 0 0 0 0 0 0 0 0 0 0 0 0 0 0 0 0 0 0 0 0 0 0 0 0 0 0 0 0 0 0 0 0 0 0 0 0 0 0 0 0 0 13.76042 13.16086 5.268182 38.23147 50.88891 75.83777 74.04641 69.16677 51.59694 23.02857 16.98559 25.66772 20.81308 30.80273 62.78548 75.61352 88.57316 93.14904 87.7921 106.095 92.67832 148.314 218.2793 146.2195 112.6926 120.9279 143.5018 194.5556 206.1277 130.8963 126.404 197.6456 125.7296 154.2707 174.8998 210.8757 197.6109 218.6353 170.0257 210.8383 147.1154 177.4081 237.8577 300.3382 297.1023 365.0284 381.2124 324.4667 502.3463 451.2014 357.8926 208.7253 284.0721 307.7483 303.2971 312.5712 354.6083 411.605 453.0671 511.7375 576.428 593.8344 565.0864 553.0314 503.3108 554.7369 544.4614 483.7432 558.9947 587.0596 468.8847 491.6882 517.1833 416.1547 413.3098 411.0276 458.4789 511.4059 517.4529 555.2619 581.395 526.4464 430.238 515.9157 512.5431 506.8877 546.3187 404.2386 414.9792 332.0801 320.5496 404.9728 378.9346 373.3392 338.7355 328.056 329.7103 348.3049 331.5573 367.8028 324.9611 346.0144 307.9703 358.1926 321.1597 327.1629 351.4422 325.0502 292.1764 303.9773 289.8361 303.4957 282.5341 273.1617 287.5333 290.5715 272.3642 270.6742 271.4889 265.5761 252.8729 251.0287 243.2992 240.5184 237.4895 234.9047 224.6944 221.6281 221.5907 237.9023 270.5002 292.0622 291.4846 345.6934 301.4006 275.9362 283.7189 291.454 290.5141 330.3345 316.9547 292.6617 287.728 281.6236 286.5737 284.631 287.0744 292.4174 291.3781 297.7875 288.3886 277.6786 293.5182 299.4715 299.5659 300.3443 303.9416 308.5453 314.3634 320.8797 322.1423 337.8652 344.6998 357.3981 356.2982 344.3501 336.4499 327.9105 315.8157 306.0217 303.3145 306.8357 326.6584 355.3135 373.8553 368.1517 370.9384 362.0964 372.3857 377.2472 371.6515 366.6362 366.7923 378.7852 392.6451 427.8753 462.8641 445.632 483.5681 477.8476 431.2781 444.8936 480.5402 462.6425 443.1401 441.9243 460.1993 450.7579 447.7126 424.846 390.1577 394.8149 405.8659 372.5898 421.5572 409.0551 384.1371 356.2234 364.3289 428.0314 420.1936 454.1578 458.096 445.7588 441.3878 433.4448 432.4863 448.2667 441.03 425.0697 430.0858 408.232 417.1107 425.0758 439.6827 422.0377 435.0615 431.7545 421.5481 415.6581 431.7105 371.168 354.1919 353.7425 363.5363 407.2152 440.1258 440.7372 433.0415 426.6531 437.4298 434.0934 383.713 390.035 375.6917 355.1349 358.9235 367.5187 375.0446 410.8986 414.4303 412.9012 414.6671 431.1897 430.7869 479.7876 465.1022 487.33 475.0047 546.3531 626.1917 588.7633 546.2922 514.9281 566.6364 553.491 549.0845
0 0 0 0 0 0 0 0 0 0 0 0 0 0 0 0 0 0 0 0 0 0 0 0 0 0 0 0 0 0 0 0 0 0 0 0 0 0 0 0 0 0 0 0 0 0 0 0 0 0 0 0 0 0 0 0 0 0 0 0 0 0 0 0 0 0 0 0 0 0 0 0 0 0 0 0 0 0 0 0 0 0 0 0 0 0 0 0 0 0 0 0 0 0 0 0 0 0 0 0 0 0 0 0 0 0 0 0 0 0 0 0 0 0 0 0 0 0 0 0 0 0 0 0 0 0 0 0 0 0 0 0 0 0 0 0 0 0 0 0 0 0 0 0 0 0 0 0 0 0 0 0 0 0 0 0 0 0 0 0 0 0 0 0 0 0 0 17.87077 49.77062 53.7249 6.93122 24.38269 42.22002 23.73685 22.6317 13.22671 32.33293 35.20144 86.86922 22.59373 33.99824 89.46784 123.6861 77.52515 92.54326 87.80265 148.5794 210.689 218.7058 192.9903 107.1289 138.6591 168.7352 133.7101 186.9839 178.6786 160.3269 105.5043 160.2738 120.6808 187.988 266.1875 197.4408 180.5055 180.3678 259.6429 263.4274 255.7078 158.3337 151.4145 223.8971 245.7703 305.2187 284.5338 341.6684 325.2892 371.1361 281.9138 249.8369 291.5632 244.4734 329.5081 342.8714 395.8021 456.3377 437.5407 486.6675 569.0336 639.526 570.5863 560.2442 590.6434 658.7209 581.0166 524.8691 591.0546 585.2242 479.5847 421.426 440.0703 401.6739 448.3134 445.0688 500.7957 549.8165 582.0032 588.051 583.593 485.4038 531.2205 522.9283 551.6829 563.7639 568.0296 548.6312 525.9715 431.0247 331.6331 333.9155 345.2885 369.445 360.1259 347.2159 315.2099 338.6737 322.1558 347.223 341.8201 361.2218 299.2863 366.4841 364.4685 339.0547 304.6877 310.9652 310.0794 284.7674 279.3935 276.7094 274.0009 269.1949 281.9172 273.6142 274.3415 269.5134 263.1618 270.2042 253.237 244.6517 235.2197 238.3087 236.0195 233.5997 221.9874 224.6941 237.3907 250.0115 264.6514 279.4202 282.5383 279.6561 282.7121 287.9666 294.3431 292.8627 297.619 314.0874 330.6288 307.9867 294.3175 298.1327 298.3834 287.1299 283.1864 292.7442 298.6046 309.9114 287.4692 282.2288 286.1254 288.9036 299.8737 300.5075 305.899 307.0777 312.4384 314.9424 315.2092 319.0402 322.2313 323.0982 322.804 323.9272 322.6097 318.8418 311.8406 310.5703 305.1724 308.3543 323.6174 328.6126 343.3299 360.0021 366.3758 365.636 360.1161 380.076 361.1792 360.6299 364.5411 376.4922 398.292 424.1762 448.5757 478.2277 501.5069 496.3393 463.6366 434.7209 468.2526 483.0412 467.0713 451.3279 445.7476 427.7814 418.2449 404.1192 401.7033 397.6669 426.7067 384.7308 399.1204 431.5668 396.0857 365.1668 359.0517 372.8358 418.0308 437.7166 467.3802 465.8231 444.5801 441.7676 441.6803 425.221 422.2393 426.3896 411.7895 392.882 427.1953 445.0106 431.9791 453.9042 450.1841 441.6932 412.7137 430.3044 435.7603 380.185 359.1267 355.905 366.5295 396.911 448.0937 438.0191 450.4489 451.5638 431.3209 447.2466 429.1637 413.1844 390.8451 358.8371 356.9102 361.4827 367.2424 381.171 392.6618 397.3648 402.5363 411.0826 425.9383 436.3381 428.9232 494.042 556.8337 574.2762 612.3851 581.6045 526.2022 511.5211 519.4177 526.3839 554.5153
0 0 0 0 0 0 0 0 0 0 0 0 0 0 0 0 0 0 0 0 0 0 0 0 0 0 0 0 0 0 0 0 0 0 0 0 0 0 0 0 0 0 0 0 0 0 0 0 0 0 0 0 0 0 0 0 0 0 0 0 0 0 0 0 0 0 0 0 0 0 0 0 0 0 0 0 0 0 0 0 0 0 0 0 0 0 0 0 0 0 0 0 0 0 0 0 0 0 0 0 0 0 0 0 0 0 0 0 0 0 0 0 0 0 0 0 0 0 0 0 0 0 0 0 0 0 0 0 0 0 0 0 0 0 0 0 0 0 0 0 0 0 0 0 0 0 0 0 0 0 0 0 0 0 0 0 0 0 0 0 0 0 0 0 0 0 0 2.576033 24.03535 50.14328 14.53158 8.639873 10.98598 18.7045 44.40143 33.623 78.85669 54.5867 63.99952 21.59062 34.80624 57.35312 89.18685 98.26261 69.5939 66.63834 97.24534 186.6296 214.868 142.1474 124.5442 156.6779 189.1249 177.5807 144.0541 158.0051 133.0141 113.4298 134.9307 118.3264 185.4322 168.9197 142.403 194.59 235.3709 273.0968 329.9986 340.6914 274.6024 187.3445 160.776 163.9736 242.1056 238.5893 252.8813 195.4664 223.5958 209.0542 323.8792 348.779 354.3107 302.4247 362.4791 411.7973 508.0629 537.6824 522.1951 575.7095 550.6026 600.8216 496.4434 532.5826 581.8455 612.0771 629.5109 576.6943 538.2894 500.9262 482.6129 406.3239 378.2933 404.7713 484.1055 465.3885 503.2231 555.7404 515.2447 526.0383 570.6292 558.4622 471.8562 491.1633 543.8255 556.9835 573.4793 532.457 466.0823 408.91 341.7075 330.6098 356.1656 348.1446 363.7414 304.3766 332.0167 321.0317 323.4134 316.0704 356.2729 315.1202 362.8379 321.3433 322.8861 313.603 294.5995 291.6513 284.8974 281.2446 298.5829 284.8557 268.6862 267.4047 265.7056 256.2766 258.6349 259.0834 265.925 269.964 251.7951 241.8704 233.0505 233.7597 226.8639 223.2353 235.3286 243.0869 252.9864 255.6908 256.9209 257.8065 269.7224 285.3454 290.679 287.1476 313.3659 300.1398 290.4649 299.973 297.8059 292.606 302.4062 301.4342 305.4324 292.635 288.7604 292.775 300.5675 293.9998 282.7097 281.9374 290.3461 295.5259 299.7358 301.4084 306.2604 306.1714 310.4376 312.3905 314.7961 314.9496 318.4199 318.8275 319.0942 323.2917 330.0291 312.885 313.7632 307.4951 309.4367 320.2735 329.0675 339.804 359.5656 344.6511 364.3115 352.6285 365.4621 348.757 368.8571 374.849 378.8176 389.6799 399.1403 430.7973 502.5609 510.6599 485.627 460.3582 476.4715 445.9399 451.5795 467.8897 480.8626 462.3117 469.5954 464.6725 452.6003 406.8141 397.1175 421.1357 392.7939 411.8336 442.1378 424.2366 372.4238 360.9519 368.9643 378.4212 434.2217 434.4036 479.5181 480.4934 457.9966 437.6743 440.5865 406.4194 412.5735 424.5721 417.2925 407.2334 425.7477 447.8441 444.9167 445.5189 438.5258 437.1854 437.1182 429.373 418.637 360.0257 357.4909 364.7322 390.7812 423.8673 427.3067 453.2318 455.4581 456.9894 449.3838 390.0378 412.3284 404.3478 393.5858 362.209 359.0535 364.836 367.3597 370.1458 380.0038 381.9877 389.2575 403.1212 414.7154 438.1795 443.9607 502.3708 518.7859 580.1235 519.6506 480.9108 536.4413 539.9368 507.7949 564.5075
0 0 0 0 0 0 0 0 0 0 0 0 0 0 0 0 0 0 0 0 0 0 0 0 0 0 0 0 0 0 0 0 0 0 0 0 0 0 0 0 0 0 0 0 0 0 0 0 0 0 0 0 0 0 0 0 0 0 0 0 0 0 0 0 0 0 0 0 0 0 0 0 0 0 0 0 0 0 0 0 0 0 0 0 0 0 0 0 0 0 0 0 0 0 0 0 0 0 0 0 0 0 0 0 0 0 0 0 0 0 0 0 0 0 0 0 0 0 0 0 0 0 0 0 0 0 0 0 0 0 0 0 0 0 0 0 0 0 0 0 0 0 0 0 0 0 0 0 0 0 0 0 0 0 0 0 0 0 0 0 0 0 0 0 0 0 0 0 4.540408 36.87754 61.67873 31.00542 58.26587 66.52797 57.01422 76.56872 80.01987 49.15354 101.1221 51.36103 24.67345 27.44403 41.68317 52.40074 48.73565 104.2203 165.9722 168.0812 112.6201 85.1839 143.073 218.5476 246.9818 210.4329 156.4405 159.5287 114.2898 118.6573 96.97617 145.2996 125.0524 135.1259 181.0004 205.6151 187.1188 191.4905 224.3034 278.2658 295.7342 254.4033 216.3546 201.2304 168.3266 174.0941 192.4942 193.5249 263.5331 230.443 278.4914 342.6712 425.8593 443.5195 433.3013 446.9957 485.2076 628.2658 598.5602 618.5968 563.8766 491.6075 527.8243 479.3815 524.0124 539.9639 582.2824 571.9127 584.1612 505.5735 500.2006 496.446 440.7254 381.3148 396.0213 472.2573 505.0316 557.2695 511.0852 519.113 532.5248 549.2737 500.7326 447.8042 528.2306 543.924 547.7796 548.6411 499.2722 417.0082 370.4843 333.7039 342.0753 337.1954 344.0023 327.7818 300.8293 319.8943 315.3922 332.9559 304.0757 302.9551 368.5975 331.7544 306.2159 330.1357 305.0425 291.5448 297.5976 300.0132 274.6359 300.5683 310.8496 290.741 283.3614 265.8814 248.2473 251.3365 259.2957 243.941 247.9735 245.695 234.5547 229.1552 227.4619 223.5469 237.5784 248.3517 243.4892 253.2065 255.354 263.2684 261.5084 274.339 283.1361 277.02 276.5881 281.744 292.4924 292.0181 323.1998 324.1807 299.0797 313.466 313.7934 311.4872 306.1779 293.3735 307.5669 299.4769 293.7379 281.4348 289.1407 295.1189 298.7577 300.5508 303.1263 304.8817 306.7423 305.4739 310.1338 305.6322 310.6202 318.2944 321.9574 326.8534 324.9018 313.816 313.2852 314.2448 311.5971 315.3129 325.6112 333.3532 343.835 334.1059 343.7585 356.8291 360.0858 360.5584 356.9277 364.7939 381.3487 385.6994 401.0973 426.9728 469.8582 504.1734 493.3142 497.7116 469.8404 469.4553 483.4765 479.0288 483.0304 468.2732 480.129 466.0203 417.1313 438.0744 407.4104 439.5031 403.6931 438.6045 446.6314 434.891 381.6879 369.6803 365.3246 375.01 411.1378 441.9652 485.7045 465.5848 447.8734 459.3518 440.5825 425.2577 421.7657 439.6834 416.3116 427.3869 439.6827 454.6981 463.4955 457.1985 460.0956 454.1935 442.567 441.1131 421.9671 360.4738 358.9702 367.4528 378.7497 401.0755 419.216 455.3453 458.7834 460.6043 435.7218 424.2412 453.0324 413.7369 405.7883 417.8739 364.7839 360.3522 360.664 364.0887 371.5004 372.7691 372.6542 373.3358 401.2707 419.0222 421.4837 490.868 488.5661 540.6246 513.9772 470.4259 529.0615 519.8109 511.8872 532.1671
0 0 0 0 0 0 0 0 0 0 0 0 0 0 0 0 0 0 0 0 0 0 0 0 0 0 0 0 0 0 0 0 0 0 0 0 0 0 0 0 0 0 0 0 0 0 0 0 0 0 0 0 0 0 0 0 0 0 0 0 0 0 0 0 0 0 0 0 0 0 0 0 0 0 0 0 0 0 0 0 0 0 0 0 0 0 0 0 0 0 0 0 0 0 0 0 0 0 0 0 0 0 0 0 0 0 0 0 0 0 0 0 0 0 0 0 0 0 0 0 0 0 0 0 0 0 0 0 0 0 0 0 0 0 0 0 0 0 0 0 0 0 0 0 0 0 0 0 0 0 0 0 0 0 0 0 0 0 0 0 0 0 0 0 0 0 0 0 13.68067 35.65071 63.75632 64.05249 18.92759 46.40915 75.36526 85.23889 90.0485 56.91516 103.6291 89.18266 34.43174 25.93955 24.70656 29.09017 43.65443 109.3034 189.0514 142.3574 80.0705 158.77 210.2221 181.4901 228.3593 230.133 144.9367 142.0426 135.2527 95.48907 104.712 109.4677 117.9033 173.482 230.2873 233.6295 142.7388 158.8309 193.9655 216.0609 274.7696 335.7898 322.3662 276.0103 230.0278 237.5046 206.7083 249.8545 265.9822 279.2486 240.7036 266.4424 353.3077 426.2113 482.4457 437.3869 480.1827 570.092 693.5347 631.8181 572.4033 530.9874 469.5353 452.1262 459.0671 506.4736 515.0015 554.5602 491.4243 462.4216 469.3158 414.6059 448.7308 421.9843 465.2501 404.6629 463.7866 501.2516 525.171 448.4163 473.5856 469.0758 507.2466 435.3382 455.9752 490.0478 496.3975 526.9955 499.5377 458.1533 408.4909 298.6111 331.0611 324.7951 330.7991 344.9043 306.543 307.5119 307.3275 304.3329 295.0757 300.1878 309.8816 345.319 324.0632 340.2097 332.1418 330.8897 292.9388 321.5483 306.8607 318.0599 282.069 286.5883 263.5548 287.6523 256.274 250.9421 247.2289 243.4247 249.0766 236.8752 231.8575 233.4289 228.7957 224.5376 232.4967 247.0722 250.889 257.973 260.8018 264.2175 265.1409 266.8346 270.5522 288.481 295.0228 278.1172 283.5771 283.7406 295.8527 299.0327 301.4951 308.3717 308.7783 315.2484 308.7813 304.3589 316.9928 324.5862 291.559 293.392 281.5835 293.5981 294.9595 299.4197 301.2456 300.434 300.6011 300.5469 302.3408 311.8764 306.6251 314.3358 322.1439 327.4825 321.3555 311.9855 310.1985 322.5229 312.516 317.6455 325.5682 330.293 330.0357 336.5729 336.6905 341.5668 340.2423 344.4223 355.6093 361.2888 364.6891 380.276 387.4145 424.6896 484.0621 469.4371 478.0055 480.2712 467.9922 464.878 468.6952 504.3493 486.069 484.0855 475.6409 444.9519 476.0212 441.719 417.5515 462.3724 430.6837 435.8725 450.2468 454.6508 390.6007 377.8582 363.3029 373.3655 388.6252 421.18 446.377 425.9049 477.3089 468.6353 432.6075 416.2556 452.4658 430.8708 454.9692 412.0482 438.7269 444.1645 459.7829 474.6245 456.2837 466.1043 460.2961 451.379 417.4507 363.2218 360.4944 369.023 378.3271 400.4963 454.9695 435.7365 459.4884 459.1259 409.6747 461.0138 459.084 418.5726 435.9081 429.9966 412.9894 372.7111 380.7764 363.4863 364.8152 365.587 366.3633 376.4164 387.2968 409.2323 416.8184 459.575 460.1962 481.9142 441.5208 526.8978 502.2156 482.0598 518.6078 548.7088
0 0 0 0 0 0 0 0 0 0 0 0 0 0 0 0 0 0 0 0 0 0 0 0 0 0 0 0 0 0 0 0 0 0 0 0 0 0 0 0 0 0 0 0 0 0 0 0 0 0 0 0 0 0 0 0 0 0 0 0 0 0 0 0 0 0 0 0 0 0 0 0 0 0 0 0 0 0 0 0 0 0 0 0 0 0 0 0 0 0 0 0 0 0 0 0 0 0 0 0 0 0 0 0 0 0 0 0 0 0 0 0 0 0 0 0 0 0 0 0 0 0 0 0 0 0 0 0 0 0 0 0 0 0 0 0 0 0 0 0 0 0 0 0 0 0 0 0 0 0 0 0 0 0 0 0 0 0 0 0 0 0 0 0 0 0 0 0 14.13278 29.45693 66.67764 75.86037 68.62363 73.28624 63.92435 83.88408 107.7838 73.94015 99.61761 116.6077 98.27782 97.99615 124.3182 24.55599 72.79752 163.5625 167.7509 131.2164 88.23683 146.4643 120.5732 191.6965 211.0261 223.6449 157.6042 152.9973 136.0703 86.17641 93.7196 122.0334 149.5802 166.5726 162.388 172.1067 165.5392 224.798 236.9098 217.3549 279.4495 331.5315 391.8602 355.9784 308.1198 241.9258 317.3759 308.1938 324.8006 312.7815 333.1596 271.5496 255.9172 298.2344 319.444 375.747 424.6878 516.3874 617.5768 691.5552 634.6143 511.5288 502.3925 455.2659 439.0734 446.0633 509.3432 547.3037 532.5472 533.0317 475.2928 539.5775 543.1091 464.0552 524.5527 496.0289 461.9911 430.3267 486.4658 507.5895 413.1305 437.6419 481.2953 456.4095 407.5067 451.9096 454.5605 505.9375 464.7308 461.8557 402.5214 328.2884 322.7141 300.1714 323.9579 316.5887 335.8009 291.2549 291.1035 292.0088 286.4843 303.947 310.6708 308.9283 317.7953 307.6714 317.2704 322.1693 317.1028 309.1838 289.4118 299.5533 288.0319 282.7025 287.9129 275.3852 268.3407 258.7281 263.7214 262.0665 253.0238 245.1066 239.1696 234.3536 230.3369 224.8387 240.0425 247.0697 253.6456 258.0709 259.5584 249.0538 299.4457 314.499 328.8323 275.2045 286.2577 296.8603 305.4137 307.7043 292.5997 288.3686 301.5839 308.6331 330.0496 320.1831 313.6753 317.6669 315.4134 306.753 300.4587 290.6503 287.1174 286.8507 293.8311 294.9729 293.9522 297.011 305.5498 309.0048 303.9637 311.5299 313.7122 313.712 319.506 329.6282 328.7117 322.0805 313.3383 316.8075 324.0233 315.7499 323.0956 325.4975 323.9944 330.1763 335.3099 337.9596 338.7742 345.5124 355.7065 360.6399 361.233 372.1376 379.0396 400.3972 433.0388 458.5538 434.0115 449.1686 455.6927 495.3432 468.9941 512.8518 493.9898 494.8074 478.7301 481.3578 437.1772 453.9167 442.1059 471.6926 423.0341 411.0999 450.0826 471.812 418.1551 389.7835 369.3446 368.1097 374.8755 416.8101 401.7208 418.2312 465.1928 457.848 435.5221 438.6108 460.1974 441.1633 446.7648 424.9156 432.6446 469.3267 472.4548 471.9087 486.4839 476.7139 483.5174 422.0166 384.771 366.116 362.7384 366.8671 378.4745 395.292 404.156 445.8278 443.7087 447.5222 444.3108 489.2479 446.465 468.7988 422.4016 465.6784 430.0088 456.8265 416.9947 419.3075 368.6638 365.5632 366.2912 365.5714 377.3358 401.7617 399.3491 429.2454 430.2106 428.426 482.8459 506.401 482.3119 491.9857 514.22 512.1594
0 0 0 0 0 0 0 0 0 0 0 0 0 0 0 0 0 0 0 0 0 0 0 0 0 0 0 0 0 0 0 0 0 0 0 0 0 0 0 0 0 0 0 0 0 0 0 0 0 0 0 0 0 0 0 0 0 0 0 0 0 0 0 0 0 0 0 0 0 0 0 0 0 0 0 0 0 0 0 0 0 0 0 0 0 0 0 0 0 0 0 0 0 0 0 0 0 0 0 0 0 0 0 0 0 0 0 0 0 0 0 0 0 0 0 0 0 0 0 0 0 0 0 0 0 0 0 0 0 0 0 0 0 0 0 0 0 0 0 0 0 0 0 0 0 0 0 0 0 0 0 0 0 0 0 0 0 0 0 0 0 0 0 0 0 0 0 0 0 13.60358 34.61386 67.89872 74.58345 83.45807 97.79053 74.26378 111.6885 100.677 89.27898 102.5574 121.0511 152.0665 88.59286 24.46985 45.66411 86.27995 122.9271 119.9021 98.43329 147.0468 83.46071 129.1069 199.5981 220.0665 124.3705 176.8302 89.35181 91.43611 116.6759 137.0299 130.5603 126.9884 151.1845 156.3052 191.7505 174.7991 251.0217 303.8646 330.6986 368.9939 393.6633 329.1454 266.5134 230.7267 231.7559 276.7571 361.6658 381.6981 369.5022 319.9036 328.9922 262.6561 316.6938 399.2548 436.3898 518.9407 492.727 616.2308 664.7172 567.7388 524.8583 496.4707 452.0753 435.0165 433.9581 482.4205 504.4351 524.2698 531.364 545.3007 564.8583 512.8004 473.2411 536.656 505.2373 472.3111 458.7679 458.3438 461.6153 416.1408 417.8884 470.9321 373.4808 430.8965 468.9796 475.3595 460.1206 396.4578 415.7622 334.5155 287.4919 294.603 308.1222 315.4593 327.0118 314.1255 283.2992 289.1806 293.0855 310.5705 346.0413 321.8989 294.8721 305.0569 320.0489 295.1152 320.284 303.7176 317.0701 295.707 271.4351 270.4105 264.4117 263.0468 262.7455 258.1959 254.8491 256.7239 249.7828 244.7247 239.9961 233.0713 229.0443 230.081 231.297 245.3589 251.8401 256.2939 257.3787 261.045 281.6554 320.2682 308.921 292.942 300.5288 305.3809 343.8409 368.4137 371.0238 342.7573 315.7598 299.9448 323.5801 313.4839 318.0729 314.5276 321.3915 307.9906 319.8481 299.5554 318.2805 299.4048 301.4365 293.705 315.3165 332.5053 337.4654 325.0239 330.9499 319.8344 330.2463 313.2093 320.1133 330.5399 337.5719 321.4887 315.4561 316.1393 324.1915 316.8177 317.9518 319.4243 323.1093 324.8993 331.0662 332.3769 338.5547 343.3537 349.8177 352.6697 360.7547 364.6756 375.0742 387.7583 399.6031 407.0603 409.6683 420.2611 437.2853 492.8182 514.1904 496.0304 505.6646 501.5048 478.5783 503.7436 453.3585 442.5786 462.8867 463.9733 460.378 475.5366 430.7244 440.5435 448.104 416.6191 386.1487 368.6483 372.3675 420.2594 471.1849 461.615 464.7744 456.5952 452.6844 463.9058 453.5691 440.985 475.0398 469.16 425.9771 445.7885 463.4815 470.4018 483.1875 479.5548 497.614 456.5364 424.1941 365.7413 364.5598 364.0638 385.8916 400.4835 449.0634 444.769 459.2474 485.5313 424.5938 483.1475 494.8716 464.5993 415.9526 457.2346 436.4905 480.1617 438.0208 434.2577 434.2791 407.372 371.6842 368.1792 366.3949 375.0305 406.9601 426.7896 441.0312 462.7969 472.4328 478.0595 449.3224 493.6017 518.0675 492.3445
0 0 0 0 0 0 0 0 0 0 0 0 0 0 0 0 0 0 0 0 0 0 0 0 0 0 0 0 0 0 0 0 0 0 0 0 0 0 0 0 0 0 0 0 0 0 0 0 0 0 0 0 0 0 0 0 0 0 0 0 0 0 0 0 0 0 0 0 0 0 0 0 0 0 0 0 0 0 0 0 0 0 0 0 0 0 0 0 0 0 0 0 0 0 0 0 0 0 0 0 0 0 0 0 0 0 0 0 0 0 0 0 0 0 0 0 0 0 0 0 0 0 0 0 0 0 0 0 0 0 0 0 0 0 0 0 0 0 0 0 0 0 0 0 0 0 0 0 0 0 0 0 0 0 0 0 0 0 0 0 0 0 0 0 0 0 0 0 0 0 12.76077 38.4978 68.24754 76.55567 112.7182 122.4817 105.4522 137.5602 81.49755 77.51025 98.18528 72.84671 86.91838 24.59888 56.1149 66.78099 106.5699 94.18353 84.86723 132.9334 68.87827 108.8331 198.2313 164.4615 106.255 212.219 111.091 92.89094 108.9884 116.7283 111.6885 156.4416 184.0683 121.8519 173.3636 171.9171 240.464 232.5504 282.3707 302.3946 339.76 266.5512 212.6077 231.8221 264.2724 289.2921 257.1328 327.808 364.6882 350.7897 384.0026 312.0222 307.8416 299.8242 412.4432 390.058 471.2234 554.1204 650.7962 581.855 516.231 507.7418 503.2218 470.1073 446.2513 453.4988 481.9326 546.5176 494.6352 548.8388 567.9786 540.9595 499.5775 490.7376 455.756 462.9305 466.3575 445.0344 452.1511 469.0224 374.8986 403.1571 449.2944 395.0895 428.7667 453.3141 446.394 424.1043 344.2649 313.2884 288.3034 285.127 295.4138 296.0763 300.2389 310.1608 300.1786 275.1057 308.2711 321.5923 316.6838 293.5465 280.1561 301.817 308.4248 294.523 293.324 299.9905 281.347 276.2535 272.483 265.6553 263.3571 258.8647 254.6576 254.3832 252.1161 251.8629 245.9647 239.8426 239.4655 229.0492 226.3214 243.1752 253.0886 236.5234 244.6425 242.0861 258.488 271.1319 285.88 292.9274 281.7234 301.0103 305.2767 334.912 351.5012 361.6217 356.5511 327.8505 349.3167 317.3905 304.9951 305.6144 316.618 317.6143 320.6819 321.9942 309.5968 312.5341 311.5404 316.4828 311.8049 306.2915 302.7332 309.9091 319.0382 330.2598 322.4023 315.9225 324.2425 327.8817 317.7874 330.3741 341.9836 343.9165 318.7735 316.4626 344.496 324.1857 332.2131 319.9233 325.6643 322.9601 328.4883 334.88 338.7998 342.4166 343.4976 348.4916 354.7669 366.5732 364.4026 382.021 383.3649 393.2973 401.6098 411.2091 425.0227 456.7327 492.7574 525.3254 506.2781 508.9871 515.2554 474.2712 452.8467 444.8061 451.6802 499.2599 457.339 482.9454 448.0006 464.885 415.8102 401.4359 390.5974 372.2492 376.9199 405.7849 446.3727 476.2878 467.2717 460.26 463.3174 448.3606 474.294 458.8542 465.7626 475.326 429.4612 448.2482 437.8803 459.3087 485.8136 503.3232 503.4969 469.3972 459.0879 369.3956 367.6744 365.5029 378.9873 428.5933 430.2633 443.2239 463.9066 476.4862 453.5761 470.6604 466.0225 502.295 455.9742 433.2188 463.8277 465.3472 470.8084 448.0107 418.2335 401.3178 385.2804 374.0338 369.5923 374.5343 405.5135 398.1332 415.864 432.0114 452.3568 432.9541 459.366 453.1245 482.5971 468.52
0 0 0 0 0 0 0 0 0 0 0 0 0 0 0 0 0 0 0 0 0 0 0 0 0 0 0 0 0 0 0 0 0 0 0 0 0 0 0 0 0 0 0 0 0 0 0 0 0 0 0 0 0 0 0 0 0 0 0 0 0 0 0 0 0 0 0 0 0 0 0 0 0 0 0 0 0 0 0 0 0 0 0 0 0 0 0 0 0 0 0 0 0 0 0 0 0 0 0 0 0 0 0 0 0 0 0 0 0 0 0 0 0 0 0 0 0 0 0 0 0 0 0 0 0 0 0 0 0 0 0 0 0 0 0 0 0 0 0 0 0 0 0 0 0 0 0 0 0 0 0 0 0 0 0 0 0 0 0 0 0 0 0 0 0 0 0 0 0 0 0 12.37566 40.12595 86.28426 98.89695 111.0606 110.2606 139.0609 72.35394 53.15289 36.99815 77.41864 52.92021 24.7435 40.38694 81.54382 110.8216 78.15125 56.64186 82.20784 73.73194 77.22697 92.46651 118.468 115.765 168.3324 94.88222 112.3976 159.821 92.96987 164.7453 143.5531 161.5543 122.494 152.1854 143.826 172.9925 170.9848 220.5327 266.8518 268.371 195.8728 234.768 302.0573 342.1999 294.0935 214.3285 215.0344 292.344 328.6204 369.6466 386.9697 400.9151 333.7754 371.1714 407.2162 427.5985 479.5191 535.8931 628.17 550.0403 482.2505 489.0399 509.3698 496.2658 453.5627 422.8064 459.5413 464.2123 490.103 506.2971 517.9478 530.206 524.5909 434.7946 395.851 429.2584 407.2974 439.6052 438.8412 461.2176 352.7909 385.5494 355.4752 415.1586 457.8718 396.2136 401.801 424.0904 386.5521 342.3865 280.055 285.961 282.3544 284.8766 290.3365 280.4399 271.3778 283.7052 299.1129 313.3321 309.8185 273.5901 285.374 305.7478 284.4261 294.1478 281.8884 283.6742 279.8318 270.66 269.4666 276.2712 277.2386 264.1808 255.3145 241.2278 244.4154 246.9651 241.1573 231.6283 227.7735 230.933 256.5262 245.7657 269.5266 281.5372 312.2076 252.0956 253.4037 258.0187 263.396 282.8412 286.4236 298.4544 344.639 377.8747 386.0181 356.6767 322.4308 326.9008 339.6939 306.8376 310.6235 334.2197 324.9228 326.4848 329.8512 326.2927 318.6558 323.5624 324.7525 305.0478 318.4148 305.9792 311.4118 322.3949 323.1855 328.6177 319.0647 345.0212 342.1646 316.2956 329.5421 355.1328 343.6872 348.354 318.0337 317.5985 321.7797 328.5683 332.5597 326.48 336.2144 324.8693 331.067 330.4403 333.3248 339.9999 343.2447 352.109 353.6805 356.911 370.3685 378.3933 392.7538 393.869 403.1633 429.4919 436.539 486.2668 488.0522 474.8431 491.2314 521.3102 470.5038 496.1651 461.8087 513.2713 490.1687 480.8893 472.7869 466.0763 454.7108 430.5827 408.7153 383.4701 372.4669 377.8554 420.0154 422.0207 453.8284 469.0457 458.638 474.1108 467.7442 466.6988 463.8648 471.1635 486.009 475.9279 446.8542 472.0319 449.4521 463.8538 500.6598 503.5951 466.932 439.7296 400.2775 377.8851 367.1084 385.5947 388.9001 431.2393 471.4099 467.9132 496.1135 457.5008 455.445 472.9883 495.3326 482.2583 439.9621 489.9486 511.0587 506.4243 468.2361 433.4164 407.5349 382.091 374.4648 370.6897 378.7178 385.9974 397.3961 398.0272 406.4727 437.5343 414.175 427.6779 432.6972 443.8557 436.2224
0 0 0 0 0 0 0 0 0 0 0 0 0 0 0 0 0 0 0 0 0 0 0 0 0 0 0 0 0 0 0 0 0 0 0 0 0 0 0 0 0 0 0 0 0 0 0 0 0 0 0 0 0 0 0 0 0 0 0 0 0 0 0 0 0 0 0 0 0 0 0 0 0 0 0 0 0 0 0 0 0 0 0 0 0 0 0 0 0 0 0 0 0 0 0 0 0 0 0 0 0 0 0 0 0 0 0 0 0 0 0 0 0 0 0 0 0 0 0 0 0 0 0 0 0 0 0 0 0 0 0 0 0 0 0 0 0 0 0 0 0 0 0 0 0 0 0 0 0 0 0 0 0 0 0 0 0 0 0 0 0 0 0 0 0 0 0 0 0 0 0 2.819501 17.86506 44.48324 101.6346 110.7589 110.0846 150.6297 98.19629 77.95177 36.13752 27.75842 37.25865 24.90775 39.45423 44.18434 72.86089 74.74335 47.21848 65.77751 55.8051 86.43823 61.55744 130.2107 140.9709 138.8407 78.95086 95.51351 108.1182 122.9396 130.0601 120.422 144.2586 117.5033 113.0751 150.8961 169.6636 150.5112 200.1076 188.7664 193.5369 188.89 245.1634 310.0735 260.3567 245.3508 191.2846 195.7416 201.6022 279.0077 392.4204 470.8322 427.6981 412.4101 406.8997 392.125 458.9832 492.226 560.7114 569.8601 595.9388 511.5851 461.3441 464.9951 503.58 475.3397 504.4703 417.0198 414.5819 426.2451 444.5413 450.7947 465.4267 510.721 448.3362 423.6455 427.0224 412.4746 458.0585 493.2951 484.9495 398.166 350.1198 355.4703 369.8592 424.8364 381.6745 415.9869 382.4825 372.7172 319.1784 289.8596 309.4233 329.3173 296.9273 277.7514 274.4374 280.9087 273.0341 280.014 285.1715 280.5816 268.3586 301.8979 309.1985 298.0388 281.5669 299.0583 278.144 277.2729 268.5903 266.0592 264.4457 255.1473 251.4994 258.0039 275.3052 249.3687 245.8389 228.6364 231.0282 241.6127 258.623 258.1854 256.0236 262.1028 284.8423 279.5413 259.8238 282.318 319.5428 303.1528 290.757 286.9371 300.2887 316.3489 357.8969 393.7386 354.751 366.4846 349.731 357.3447 317.1087 323.753 330.0316 320.0785 329.1778 331.6114 332.6922 325.4199 328.0989 323.3899 319.4368 330.0853 344.3608 314.9064 330.5175 327.1591 338.1208 324.4768 327.2852 343.2513 319.7935 324.2296 348.4109 354.4417 333.1922 322.2743 319.135 318.8377 324.4459 330.8803 322.3508 324.1536 330.6318 334.8257 348.9682 330.5725 337.4121 335.2059 347.0392 348.6768 360.2806 365.2308 369.0217 379.0107 388.8082 397.4138 409.8124 428.5788 444.571 457.7472 459.3361 475.3587 519.0833 515.1388 500.7701 484.2677 489.006 514.0591 490.2472 465.143 446.8896 414.1947 411.0709 430.5454 374.6026 373.8239 391.2086 399.55 440.7246 486.4901 476.7651 461.3722 473.3768 471.8705 469.7722 462.245 458.9975 477.2273 487.8256 437.5574 483.2159 477.8518 492.4395 480.5484 497.5061 459.825 435.1209 445.1293 377.1907 368.8908 371.6521 420.649 428.8898 453.3654 479.1518 477.9594 480.8266 449.9399 484.2773 487.1754 501.8445 474.4885 492.1645 469.2673 449.3675 425.8827 465.7625 408.1021 407.7022 374.9114 371.6877 378.5264 383.1416 381.516 379.6377 385.5485 410.8291 405.6275 417.2983 428.2501 415.748 471.8549
0 0 0 0 0 0 0 0 0 0 0 0 0 0 0 0 0 0 0 0 0 0 0 0 0 0 0 0 0 0 0 0 0 0 0 0 0 0 0 0 0 0 0 0 0 0 0 0 0 0 0 0 0 0 0 0 0 0 0 0 0 0 0 0 0 0 0 0 0 0 0 0 0 0 0 0 0 0 0 0 0 0 0 0 0 0 0 0 0 0 0 0 0 0 0 0 0 0 0 0 0 0 0 0 0 0 0 0 0 0 0 0 0 0 0 0 0 0 0 0 0 0 0 0 0 0 0 0 0 0 0 0 0 0 0 0 0 0 0 0 0 0 0 0 0 0 0 0 0 0 0 0 0 0 0 0 0 0 0 0 0 0 0 0 0 0 0 0 0 0 0 0 8.387464 48.52838 64.06494 101.3163 119.3855 137.8056 178.2699 119.3693 89.5145 82.98161 25.10465 25.48857 36.16489 59.67879 67.28929 62.32441 45.28769 50.19698 48.39685 61.98992 67.24658 111.9973 122.3418 116.2466 71.33185 74.60188 87.08039 122.4512 94.50563 104.6992 129.8755 107.3585 123.7158 172.2596 124.0741 189.8542 160.9483 142.0388 168.9391 223.1891 245.8161 281.5976 203.1203 215.3059 211.9987 200.1477 191.4912 251.9672 309.4858 442.5762 459.3003 371.0957 308.401 307.2233 377.379 460.4195 486.0405 506.4623 508.4201 574.8807 511.7402 436.4431 455.2643 440.0771 485.3322 504.1277 468.4014 420.131 408.2684 447.4756 396.0609 453.9276 458.1261 447.0388 438.5822 373.0568 429.6371 451.4501 468.3162 431.4796 401.7784 333.5486 338.361 357.3663 397.2357 362.4867 365.2399 311.6959 300.9203 361.2994 412.2091 456.3918 423.2644 339.2734 335.1725 285.9352 277.1382 260.6157 277.2909 280.7529 275.729 274.1633 307.8051 284.5194 267.1656 296.7615 279.6428 283.3913 275.4364 271.4549 268.5747 259.8495 260.4875 257.6956 256.8458 244.8472 235.5464 231.0285 257.4468 271.0497 270.7244 246.9381 256.6088 269.3254 269.8475 268.6571 269.5357 290.9438 301.65 315.8251 294.2707 300.7068 302.7835 336.5015 366.8154 345.8056 384.7054 402.7776 374.0554 348.1099 342.4812 317.3958 347.5263 348.4705 341.2216 347.9207 347.0176 335.1993 336.5037 334.1704 326.0486 322.1579 344.2055 324.9108 333.8067 341.716 338.0176 329.0573 335.3941 336.4131 322.4868 344.3922 334.5639 359.6803 343.7455 329.1942 322.1811 319.3695 322.4572 328.9664 325.5907 324.1407 332.7073 340.1313 340.401 350.5964 349.81 337.6021 345.0589 351.8194 354.8164 360.2814 358.7652 385.4778 373.8801 397.763 399.9424 409.9474 423.1084 460.2635 459.0074 498.8012 464.6946 510.6881 489.7201 500.7972 496.1279 510.23 495.0527 485.7822 477.6381 468.5807 419.462 432.8791 376.2992 379.3879 392.2025 403.2306 428.7306 450.1697 479.0902 478.5805 477.445 470.8985 470.8128 476.6247 476.6997 484.4781 473.5534 438.3359 480.8057 498.2356 473.8531 498.6425 470.1295 445.1581 409.7932 413.0677 378.6832 370.1028 374.3439 402.3554 444.4952 424.0525 464.098 465.6711 498.8441 451.588 489.5861 492.8935 490.5124 479.0128 487.0446 488.9259 485.1915 488.2357 447.686 389.8804 451.3226 383.9528 372.8933 373.2869 372.6991 377.822 378.9392 382.9015 391.9338 395.9668 414.5247 406.1648 432.4695 458.1317
0 0 0 0 0 0 0 0 0 0 0 0 0 0 0 0 0 0 0 0 0 0 0 0 0 0 0 0 0 0 0 0 0 0 0 0 0 0 0 0 0 0 0 0 0 0 0 0 0 0 0 0 0 0 0 0 0 0 0 0 0 0 0 0 0 0 0 0 0 0 0 0 0 0 0 0 0 0 0 0 0 0 0 0 0 0 0 0 0 0 0 0 0 0 0 0 0 0 0 0 0 0 0 0 0 0 0 0 0 0 0 0 0 0 0 0 0 0 0 0 0 0 0 0 0 0 0 0 0 0 0 0 0 0 0 0 0 0 0 0 0 0 0 0 0 0 0 0 0 0 0 0 0 0 0 0 0 0 0 0 0 0 0 0 0 0 0 0 0 0 0 0 0 14.56925 54.00932 88.20365 105.526 160.3623 176.8875 146.1147 90.5748 113.3584 26.69113 25.1452 30.50447 34.85152 58.73834 54.19043 40.4179 43.23227 43.60351 46.00991 72.8414 70.69528 113.3132 73.42472 70.56072 74.15343 88.27988 132.6847 123.0221 125.6805 110.8313 108.822 105.2303 112.823 121.4549 150.668 135.9022 191.3242 149.9689 210.3714 249.4391 217.3969 202.5499 174.9958 209.8514 148.2833 212.3643 223.9791 297.6855 315.2315 370.9797 334.8424 281.044 270.7528 370.0644 407.9326 447.8695 459.8247 488.2541 562.7791 501.3955 475.9193 414.0969 482.1434 409.0648 452.3155 478.3614 466.2184 456.215 463.065 487.9777 426.4359 393.8114 408.1928 413.4651 407.7855 369.7835 443.4249 449.213 447.9041 396.1262 395.4591 356.5546 339.1012 319.5082 333.7741 309.7647 307.4624 389.1135 415.7684 436.317 404.0994 442.608 389.8133 398.2893 345.5092 314.7821 272.8083 264.2038 269.8624 281.8308 258.0591 254.4101 251.0494 282.4997 274.8287 278.4714 278.2367 276.7901 274.8903 269.1676 266.5124 264.8729 253.6719 245.9743 239.9705 235.7238 244.908 250.0065 271.8532 272.0925 267.2025 252.0798 269.9982 271.9295 263.7571 268.5606 292.1196 283.9581 293.9252 294.5246 295.3475 308.3158 326.7664 342.8058 381.9638 387.2922 376.4646 394.7564 364.4195 339.7465 340.0473 352.144 341.332 341.8799 344.4745 355.7922 349.9444 337.5512 344.8792 327.2594 335.0577 342.9757 329.7268 324.0233 351.2735 343.335 341.0871 345.7301 337.007 323.4151 346.789 353.7205 351.9427 328.0502 330.2325 322.2716 324.8164 321.5385 328.9814 333.7449 329.6607 334.3929 333.9215 339.9745 342.2192 352.4751 350.9447 346.7187 342.9315 349.7325 351.6142 354.9677 361.3307 375.0576 396.5951 390.1926 402.721 411.2102 420.3372 438.6277 469.8814 491.0342 471.2274 449.704 499.1635 501.5573 491.3575 477.9892 470.3859 477.7 475.9774 447.6049 476.3135 394.6356 378.0599 395.2618 434.7119 408.2545 431.3791 450.1856 476.799 480.1983 481.0341 476.341 476.6865 476.1521 477.0248 484.4582 441.1594 466.3836 498.1139 476.7866 499.8141 483.5878 478.9232 454.4926 414.0579 379.8784 371.526 381.6425 396.5116 419.7232 460.1591 434.4733 493.6679 494.5095 455.8576 498.4377 506.3709 520.519 513.3455 482.5781 443.3701 460.2353 468.1635 432.0021 435.4131 474.9522 422.457 385.5394 379.1135 376.6811 378.0227 378.2385 379.2964 387.5717 397.3277 399.9428 399.6168 410.9379 432.6242
0 0 0 0 0 0 0 0 0 0 0 0 0 0 0 0 0 0 0 0 0 0 0 0 0 0 0 0 0 0 0 0 0 0 0 0 0 0 0 0 0 0 0 0 0 0 0 0 0 0 0 0 0 0 0 0 0 0 0 0 0 0 0 0 0 0 0 0 0 0 0 0 0 0 0 0 0 0 0 0 0 0 0 0 0 0 0 0 0 0 0 0 0 0 0 0 0 0 0 0 0 0 0 0 0 0 0 0 0 0 0 0 0 0 0 0 0 0 0 0 0 0 0 0 0 0 0 0 0 0 0 0 0 0 0 0 0 0 0 0 0 0 0 0 0 0 0 0 0 0 0 0 0 0 0 0 0 0 0 0 0 0 0 0 0 0 0 0 0 0 0 0 0 0.577015 14.6581 54.78526 107.6339 188.8376 156.7886 170.9756 116.7847 134.0674 33.38269 105.8161 27.20661 43.2087 38.12069 41.42265 36.59286 38.1139 40.67201 43.7529 48.21192 83.98848 72.30704 62.87365 62.58012 86.37998 139.1379 201.8713 236.0458 209.4789 200.7243 184.1216 234.8407 212.4655 180.8065 153.9322 140.0902 140.3208 205.2664 219.8717 174.4588 145.3216 121.317 195.1822 182.1773 142.1965 187.9046 216.3227 266.6237 255.6364 243.2613 267.5345 235.7986 356.5954 414.3307 388.9919 416.9785 443.6272 499.6603 584.2115 532.8562 487.6455 455.3892 417.7026 425.5338 402.2051 410.2902 456.8418 428.6813 403.8917 434.432 487.9721 399.8896 390.1586 419.3242 397.4432 363.9781 386.7779 390.2882 460.4714 436.0213 405.4714 442.0963 419.5859 408.0368 352.6287 334.8721 409.6006 414.3545 406.4089 391.5641 394.8532 426.3281 401.979 371.2074 381.1902 326.3023 316.9218 273.6955 255.1802 275.9742 277.6384 260.1935 254.1631 244.2987 264.0595 273.7758 263.5348 257.2878 264.3482 270.7302 267.0301 258.9509 252.8111 248.6684 231.3657 240.2234 249.7691 259.0409 269.6732 268.4391 270.0979 267.6485 269.6779 270.5513 264.2089 264.2 277.692 298.468 305.8539 303.486 306.5532 326.7948 416.6615 384.9156 389.2954 378.4523 433.453 400.8571 397.3627 384.5058 340.8909 332.041 356.8553 378.6864 350.7167 363.7428 357.2994 357.6763 341.7066 332.626 341.7216 343.374 340.851 341.7152 354.9671 347.0583 344.3971 347.1842 355.4713 324.9745 339.1087 350.018 367.8381 348.2801 339.2746 323.3282 323.4352 325.5503 328.9807 345.2619 350.0241 334.9572 331.8242 337.0722 349.8907 354.0334 349.4316 343.1487 348.8514 352.5276 352.8412 360.8777 364.183 367.902 377.6845 391.1568 396.113 403.0251 411.3664 420.6729 441.2531 448.3296 466.3179 439.8665 475.4671 492.7611 451.1623 459.7777 461.8853 462.99 460.3964 473.4557 480.183 429.9615 379.3833 386.5518 439.9234 434.8643 445.7659 485.6848 489.2383 483.8876 485.1526 486.186 482.5423 481.1008 480.7211 485.2751 452.8721 481.7589 495.051 497.0816 488.7188 498.3177 437.1919 413.3492 421.255 377.5717 371.8341 380.7714 399.1678 423.801 439.4712 449.5235 474.2939 494.8099 495.8029 474.9332 485.1181 509.6288 524.6686 492.6436 499.4796 461.3615 425.8828 412.3207 462.9885 473.4554 473.4034 443.5592 394.3063 383.6294 378.5846 376.4983 376.4532 380.3571 387.0994 388.9805 386.5574 401.9865 415.5061
0 0 0 0 0 0 0 0 0 0 0 0 0 0 0 0 0 0 0 0 0 0 0 0 0 0 0 0 0 0 0 0 0 0 0 0 0 0 0 0 0 0 0 0 0 0 0 0 0 0 0 0 0 0 0 0 0 0 0 0 0 0 0 0 0 0 0 0 0 0 0 0 0 0 0 0 0 0 0 0 0 0 0 0 0 0 0 0 0 0 0 0 0 0 0 0 0 0 0 0 0 0 0 0 0 0 0 0 0 0 0 0 0 0 0 0 0 0 0 0 0 0 0 0 0 0 0 0 0 0 0 0 0 0 0 0 0 0 0 0 0 0 0 0 0 0 0 0 0 0 0 0 0 0 0 0 0 0 0 0 0 0 0 0 0 0 0 0 0 0 0 0 0 0 0 16.90866 59.90098 167.3387 201.1055 171.3432 123.4546 148.9315 84.155 113.2975 35.50945 27.40678 30.54735 35.9146 47.14003 77.40057 103.5513 65.51967 50.62578 65.05978 59.34066 60.03547 92.74033 118.5023 134.2788 172.0192 138.5829 174.9784 239.1178 214.8504 192.4611 175.9822 241.8549 205.3809 214.4712 225.7697 197.138 178.5194 117.7759 116.207 159.9081 163.6699 127.2248 130.0234 141.5764 174.6926 200.3813 215.6243 215.9239 187.5257 296.4341 398.784 309.9373 367.6852 406.0547 404.5617 405.8748 445.9342 510.6724 486.4643 541.7239 504.405 455.8846 412.4752 402.9679 393.5055 391.0015 401.3774 397.5045 415.5571 389.2242 363.6073 377.4479 387.5211 351.9642 390.1558 407.1337 467.55 447.2773 420.1575 419.9102 470.9124 450.1197 442.6259 424.4389 409.6327 425.4181 407.8908 391.4942 410.299 381.2151 368.6157 390.908 382.7642 335.3773 306.8256 293.9157 285.9004 249.3531 261.7321 248.4081 268.7316 259.33 255.0639 264.4793 258.5509 249.0013 240.2644 238.7894 266.9732 263.5023 247.8031 236.2147 233.0806 238.9241 255.1758 252.9522 263.1878 260.7739 266.7257 276.2354 274.1962 265.2619 261.6666 260.6508 271.8019 292.0568 280.0992 293.85 298.1119 319.1422 382.3671 409.8375 376.6574 400.1907 425.9235 405.1373 418.4056 380.6522 372.3251 352.0025 346.8776 359.0225 356.2681 358.4228 370.0831 355.0566 348.6513 336.9479 360.038 337.5894 344.2642 333.7422 369.7767 359.2218 370.9699 365.3065 336.4177 334.8926 343.0572 353.396 354.8176 350.625 335.6476 337.696 334.0797 325.2018 324.7018 325.868 355.7822 348.575 340.1734 335.3709 341.9675 356.3849 357.2672 349.8867 345.8795 346.1106 348.781 359.841 360.1853 367.374 379.1061 383.6673 397.7964 399.0449 404.8925 409.8544 414.5095 429.7113 435.9904 443.2343 445.6057 447.2542 434.4693 434.7475 438.7381 443.9789 451.9772 465.0193 474.8903 452.4337 385.4443 381.5099 406.7958 433.2103 436.9518 465.3882 480.7644 491.6355 489.8857 481.4502 485.9873 486.2874 487.7962 496.1634 484.9955 468.6631 490.2737 490.805 499.8202 495.7231 432.7815 432.1959 421.8913 376.834 372.7213 384.6764 390.8868 416.9479 434.6447 441.1739 467.843 482.8015 491.3875 509.1427 502.8151 517.075 521.1305 468.5663 475.1751 440.6086 456.9979 410.9603 456.1546 468.9861 437.2345 415.212 409.7498 411.5031 452.4305 409.9532 384.7805 383.2886 383.6216 385.1833 385.0133 385.2619 390.8705
0 0 0 0 0 0 0 0 0 0 0 0 0 0 0 0 0 0 0 0 0 0 0 0 0 0 0 0 0 0 0 0 0 0 0 0 0 0 0 0 0 0 0 0 0 0 0 0 0 0 0 0 0 0 0 0 0 0 0 0 0 0 0 0 0 0 0 0 0 0 0 0 0 0 0 0 0 0 0 0 0 0 0 0 0 0 0 0 0 0 0 0 0 0 0 0 0 0 0 0 0 0 0 0 0 0 0 0 0 0 0 0 0 0 0 0 0 0 0 0 0 0 0 0 0 0 0 0 0 0 0 0 0 0 0 0 0 0 0 0 0 0 0 0 0 0 0 0 0 0 0 0 0 0 0 0 0 0 0 0 0 0 0 0 0 0 0 0 0 0 0 0 0 0 0 0 26.17122 118.6717 204.6612 145.8707 108.0436 160.4101 94.59459 107.4782 127.1922 27.66339 41.51728 44.33178 67.7943 59.54412 103.4005 92.09527 49.50515 53.58134 55.65141 66.88998 83.47427 96.96035 143.839 108.8178 181.3526 215.9397 220.7967 182.089 151.7567 211.9864 187.8174 181.8231 230.1581 216.3902 129.0441 117.0224 101.0138 110.8368 114.1462 117.5972 183.5851 145.1827 180.0775 142.557 154.8208 168.2258 162.0857 173.1888 233.9786 284.2026 234.6844 297.1914 290.4086 336.2112 406.7522 481.6427 421.7422 417.5184 475.3366 525.14 530.0789 490.2903 442.1761 440.87 394.094 382.6515 392.81 458.9835 460.7973 384.1809 357.0463 373.1818 352.0667 390.5197 427.7812 433.8456 430.6011 420.1206 375.895 421.9611 465.3607 461.4573 472.9305 419.7799 343.7915 356.6713 397.0838 422.6534 463.7841 399.0298 370.3679 343.658 340.8243 310.3369 325.2206 300.6969 279.3578 271.4183 249.6341 283.3221 268.7738 242.125 245.0061 247.982 257.5476 255.5609 239.6972 264.0651 264.5909 238.3084 241.0033 231.5612 237.5902 245.9293 256.0542 279.8047 276.4205 257.3069 264.7038 258.1537 264.4041 254.5295 264.3054 271.6404 280.3308 275.4294 288.1704 302.1522 308.3117 371.4034 433.1435 425.2633 389.7094 441.5697 422.9402 401.8856 381.5153 387.7493 385.4684 342.1916 349.7327 358.2081 397.5528 383.0147 387.2827 346.2651 353.0159 354.64 341.7029 354.1393 348.5252 355.9658 368.3221 364.8699 342.5141 350.7234 341.5298 344.522 359.869 356.2807 342.1908 342.9969 328.6527 339.8343 332.2174 326.3354 326.9613 337.4126 356.7987 340.7544 336.2071 350.0313 340.2771 346.4335 350.1118 361.075 377.6761 358.7887 355.1473 375.1364 385.3623 376.4853 377.6727 383.2195 389.5111 398.3788 401.1696 403.5921 405.7207 416.5581 416.6865 422.761 423.1281 428.5008 425.0974 438.9745 444.2205 445.4743 457.7959 448.5392 422.8593 389.0536 383.8597 393.101 401.0533 420.2936 436.4637 461.3263 478.1764 490.3308 489.4547 490.904 491.9451 494.2998 496.8631 458.2679 452.5278 466.4925 481.5868 497.5592 482.2741 429.4789 457.1771 418.6349 381.9336 375.8918 385.1495 398.1753 412.8715 439.444 478.2391 455.8946 494.3636 491.2692 520.9519 510.9673 519.3853 496.7795 499.7924 458.1782 466.8209 470.086 427.0559 480.3258 495.5307 455.4139 421.3489 453.8976 484.3861 478.6887 425.5864 435.4299 421.9979 383.9341 384.1796 384.8493 385.7547 388.5028
0 0 0 0 0 0 0 0 0 0 0 0 0 0 0 0 0 0 0 0 0 0 0 0 0 0 0 0 0 0 0 0 0 0 0 0 0 0 0 0 0 0 0 0 0 0 0 0 0 0 0 0 0 0 0 0 0 0 0 0 0 0 0 0 0 0 0 0 0 0 0 0 0 0 0 0 0 0 0 0 0 0 0 0 0 0 0 0 0 0 0 0 0 0 0 0 0 0 0 0 0 0 0 0 0 0 0 0 0 0 0 0 0 0 0 0 0 0 0 0 0 0 0 0 0 0 0 0 0 0 0 0 0 0 0 0 0 0 0 0 0 0 0 0 0 0 0 0 0 0 0 0 0 0 0 0 0 0 0 0 0 0 0 0 0 0 0 0 0 0 0 0 0 0 0 0 0 64.44388 192.261 176.5784 144.7463 167.2365 98.15229 79.61553 113.4428 52.36304 30.59662 36.3498 40.14226 88.8813 87.25019 85.43104 71.26118 66.39714 73.30322 82.1711 97.09925 135.2296 126.841 146.0722 173.5328 167.1508 193.7139 173.1831 155.7668 197.9348 138.4306 224.7568 172.1852 143.6696 120.1148 98.62501 120.2705 169.3975 174.2447 159.5601 205.5588 241.8902 253.9685 237.1507 239.6619 223.1879 244.1719 232.8138 201.7847 207.9443 253.2854 310.8277 347.7228 346.1595 391.2294 403.2302 405.103 400.2697 488.4041 549.9853 592.6277 534.8598 474.6914 416.2824 410.471 408.1214 390.9736 397.7008 422.8623 431.4846 419.9922 374.9864 356.9132 355.2259 370.1093 436.8593 405.7363 363.7069 352.6431 349.7861 399.9171 403.9319 421.7291 446.9954 376.5793 352.5009 374.7791 419.675 407.9702 424.5037 426.606 389.8958 363.9845 333.9691 341.2513 285.778 270.0974 251.3816 289.1551 301.8234 288.379 272.7543 281.666 276.13 288.3655 267.7381 246.9917 244.4796 248.5584 240.335 238.6134 235.2504 232.2788 238.3235 245.7026 246.5573 252.8582 250.6009 250.8949 265.2458 264.6358 250.6567 263.112 268.0721 276.2963 285.5214 299.0102 300.5298 314.5631 330.653 437.6544 362.0831 389.6252 423.5688 404.7912 416.4751 375.1764 366.2293 360.1602 347.1828 360.9268 385.9162 378.4674 406.5712 379.4303 379.2663 373.625 353.574 354.0579 359.8193 341.0447 351.6985 374.3929 358.1092 369.0737 360.8977 349.248 341.6345 355.705 365.3472 357.6231 351.0085 332.6623 347.7015 336.202 329.0986 330.1165 336.5766 348.8313 347.2772 341.5246 344.8488 343.2227 352.6083 356.9402 354.9688 365.9997 379.8499 352.6317 364.8828 386.4792 373.6385 378.6785 379.7846 383.107 389.9358 393.6532 393.1664 399.9636 411.5365 420.5774 403.7245 399.8929 436.1023 415.3191 442.2043 446.5445 452.5061 455.8944 466.546 436.7728 397.1235 386.2642 390.3107 398.6477 417.7842 423.5887 444.5366 481.3885 496.8182 496.9707 494.5244 495.5392 500.1272 498.5692 488.4528 460.2522 456.6732 464.7368 501.2917 452.6274 449.0628 481.8481 426.3999 380.9391 375.6663 379.3732 390.3995 417.2944 436.7372 439.8245 475.1744 511.0967 519.1652 517.8721 503.9162 494.568 490.2009 481.4974 482.4927 478.7522 449.1952 474.9994 459.806 459.9637 443.6659 413.5314 460.6697 504.2718 498.6951 489.9469 471.2046 467.0988 423.6847 416.6338 384.1882 384.6574 387.7842
0 0 0 0 0 0 0 0 0 0 0 0 0 0 0 0 0 0 0 0 0 0 0 0 0 0 0 0 0 0 0 0 0 0 0 0 0 0 0 0 0 0 0 0 0 0 0 0 0 0 0 0 0 0 0 0 0 0 0 0 0 0 0 0 0 0 0 0 0 0 0 0 0 0 0 0 0 0 0 0 0 0 0 0 0 0 0 0 0 0 0 0 0 0 0 0 0 0 0 0 0 0 0 0 0 0 0 0 0 0 0 0 0 0 0 0 0 0 0 0 0 0 0 0 0 0 0 0 0 0 0 0 0 0 0 0 0 0 0 0 0 0 0 0 0 0 0 0 0 0 0 0 0 0 0 0 0 0 0 0 0 0 0 0 0 0 0 0 0 0 0 0 0 0 0 0 0 17.66417 97.85872 174.9849 191.8281 184.5163 141.0215 63.94027 126.6879 70.30617 33.46111 43.10215 49.54659 48.67524 50.81305 95.98955 105.0188 123.2456 140.2921 131.2178 140.8102 136.6685 95.33286 134.1698 120.9244 115.4489 116.9077 126.1464 130.4884 155.6517 171.5745 186.2228 112.727 91.88554 96.94485 152.6599 152.7446 118.4276 177.1497 220.9382 225.8416 270.6266 203.9807 195.5984 223.5889 277.6676 284.9441 293.4867 289.5141 247.1984 247.6014 301.8612 335.8929 418.6113 409.8499 384.5801 386.3397 483.1334 454.8194 489.8358 508.2275 562.6563 555.3629 474.3071 417.5475 418.5476 376.2193 376.7038 405.4635 366.4249 414.8051 410.7311 343.9402 346.8136 366.7582 369.6392 393.913 389.243 403.1682 330.1103 336.4483 361.4451 401.3782 367.1134 370.6104 348.8286 344.6316 386.2405 350.3551 420.0128 361.2287 388.4475 413.4194 328.46 285.3289 275.377 254.682 286.4205 351.8665 356.1008 298.1196 336.5064 353.571 333.2154 343.5897 297.6833 280.8767 257.1251 240.8568 241.2392 236.691 234.1612 233.9351 237.8636 234.7599 237.5213 242.7205 245.8857 248.4306 259.0672 259.1089 251.5231 256.9949 263.7694 271.3144 285.6948 304.5079 311.93 317.1468 317.5894 377.6285 378.2646 396.6254 400.0979 415.6004 401.801 377.2386 380.7803 379.5503 355.1665 396.485 394.0963 415.4074 389.5138 407.3209 400.2458 366.6732 352.6666 364.9581 356.2176 355.5111 352.4457 366.4035 363.2494 371.3303 373.1345 358.5583 342.2234 365.6007 371.1852 362.1152 363.0913 338.4993 355.5691 355.7636 343.4944 330.3531 330.4066 331.8631 357.1712 347.2635 354.6014 352.2178 348.4077 354.7576 355.387 356.3204 374.1794 361.6731 356.9291 361.7836 367.1015 370.2367 373.2366 379.6261 383.643 387.7981 388.9288 388.3133 391.7593 392.2006 397.8651 425.3925 433.0807 441.5028 446.9332 449.6746 451.9545 431.9428 461.946 434.648 400.3999 387.8709 390.0862 401.5325 401.8622 421.7326 433.2557 440.7346 463.2002 470.8298 503.2905 496.4103 502.2486 486.7817 494.4731 477.5134 503.4993 472.3688 487.3446 482.9989 460.13 490.5664 408.4115 384.4706 376.599 375.6326 391.7588 407.4076 424.3138 432.4856 462.3844 498.7583 507.002 509.3788 495.5239 476.4006 493.9981 477.1716 467.4625 443.2697 430.2426 478.2753 476.6452 444.5037 470.6995 414.8451 432.9822 490.8676 498.7619 486.5742 473.5932 450.3179 442.1619 443.6498 431.1591 385.5129 384.9666
0 0 0 0 0 0 0 0 0 0 0 0 0 0 0 0 0 0 0 0 0 0 0 0 0 0 0 0 0 0 0 0 0 0 0 0 0 0 0 0 0 0 0 0 0 0 0 0 0 0 0 0 0 0 0 0 0 0 0 0 0 0 0 0 0 0 0 0 0 0 0 0 0 0 0 0 0 0 0 0 0 0 0 0 0 0 0 0 0 0 0 0 0 0 0 0 0 0 0 0 0 0 0 0 0 0 0 0 0 0 0 0 0 0 0 0 0 0 0 0 0 0 0 0 0 0 0 0 0 0 0 0 0 0 0 0 0 0 0 0 0 0 0 0 0 0 0 0 0 0 0 0 0 0 0 0 0 0 0 0 0 0 0 0 0 0 0 0 0 0 0 0 0 0 0 0 0 0 24.8433 126.0457 188.7348 157.2887 104.2429 79.90253 120.826 94.99351 72.77189 33.80889 38.68106 48.0478 50.36169 63.77549 79.67272 135.5651 132.3151 109.1173 102.7854 98.72374 106.4701 124.3469 98.5184 105.4631 138.0654 134.8948 183.2119 198.7726 95.84626 116.053 82.87561 119.2971 155.9526 219.0446 251.7682 177.1195 155.7709 175.436 180.2252 248.1395 174.1001 186.3507 255.0069 224.4013 249.5882 270.8692 318.071 295.0981 262.2444 248.2058 273.8215 360.0703 371.4518 361.1114 417.0913 547.35 550.9252 461.2887 427.2064 469.3052 503.4636 517.0916 485.557 452.0406 398.9571 371.7113 368.3843 403.1591 407.7613 397.0791 365.5519 407.0604 383.8179 334.8164 380.0944 331.5583 332.1515 368.3936 376.4685 344.7137 316.4157 368.7057 412.8459 333.416 308.8969 356.6261 366.2378 363.6236 395.7845 356.3642 350.909 324.6791 310.4139 271.9851 291.6889 329.3701 387.1318 362.5875 343.6914 337.196 346.9786 356.6628 311.7157 350.3633 308.3251 302.6146 262.1849 240.426 234.1618 242.3016 235.3828 250.8327 244.1717 243.2533 238.702 238.7846 244.2321 245.4324 250.8588 250.0496 253.1082 256.2589 262.9611 278.1723 298.5187 293.5263 300.1242 305.3721 328.7403 353.3712 388.9406 375.4559 353.9121 402.7071 409.607 370.6309 368.8339 418.6031 371.9924 404.6352 394.2315 434.3608 402.6624 417.623 360.4041 374.6594 375.4419 351.9189 368.4263 357.1732 385.1135 380.8061 386.055 353.949 342.5139 368.847 362.2296 377.742 368.7297 358.9846 357.5704 348.9062 368.9604 341.6768 332.9746 331.0708 332.57 337.2639 342.3411 346.1603 349.52 356.5826 355.033 354.2439 362.0281 363.6738 375.5542 376.3279 361.8103 371.9493 381.7358 391.2748 383.8884 376.3261 388.11 402.0146 422.8855 420.8738 414.8625 395.2732 403.0522 434.8618 427.5332 426.4209 439.3149 451.2531 422.406 426.187 418.6545 391.1849 389.092 390.6447 393.8216 390.6573 396.8785 421.9788 444.6776 458.3312 455.4465 482.2141 481.4854 500.5193 496.3717 470.7877 485.509 480.1538 489.03 502.0486 508.4802 467.2086 464.385 412.7685 404.7573 377.4421 375.5249 391.4852 405.132 419.9793 438.0668 457.8192 472.8547 514.9482 503.6548 489.9318 484.3377 459.2458 467.2191 477.691 459.7336 475.9613 475.1972 493.8744 456.9261 462.7997 424.7429 482.1791 489.9371 484.9085 470.4417 462.8125 452.3246 428.2033 408.8247 418.2214 387.127 384.6099
0 0 0 0 0 0 0 0 0 0 0 0 0 0 0 0 0 0 0 0 0 0 0 0 0 0 0 0 0 0 0 0 0 0 0 0 0 0 0 0 0 0 0 0 0 0 0 0 0 0 0 0 0 0 0 0 0 0 0 0 0 0 0 0 0 0 0 0 0 0 0 0 0 0 0 0 0 0 0 0 0 0 0 0 0 0 0 0 0 0 0 0 0 0 0 0 0 0 0 0 0 0 0 0 0 0 0 0 0 0 0 0 0 0 0 0 0 0 0 0 0 0 0 0 0 0 0 0 0 0 0 0 0 0 0 0 0 0 0 0 0 0 0 0 0 0 0 0 0 0 0 0 0 0 0 0 0 0 0 0 0 0 0 0 0 0 0 0 0 0 0 0 0 0 0 0 0 0 0 41.08159 133.2138 188.7762 133.3138 154.3156 106.3249 147.7071 113.3613 72.34957 36.95282 47.74983 50.90565 95.51893 82.53627 98.04456 126.4294 85.16509 131.5772 83.25455 91.953 110.7653 154.3995 174.2224 174.7596 155.7839 145.1649 170.1947 78.31313 73.44487 121.2983 203.154 204.446 215.6657 188.6882 261.3651 246.1333 245.2058 240.0665 230.1903 163.6605 227.2692 219.093 167.5941 198.5907 208.9017 226.3 241.42 345.524 307.1982 278.029 321.3819 301.4732 369.1242 492.3595 503.2125 498.6941 443.6083 376.3624 369.9272 431.0107 487.9656 547.4157 483.7785 408.7823 389.5051 414.2898 442.0651 455.6292 417.4902 451.2157 395.6337 456.5846 397.9209 367.5914 331.1721 401.0276 407.3162 453.1995 418.0994 400.6258 326.2654 435.2641 454.0436 427.588 337.0575 357.8456 353.203 281.0434 275.0905 273.8534 295.4292 267.4207 260.2749 291.9944 359.1436 393.5486 377.1466 391.4716 402.0631 393.0728 394.8072 351.716 388.7128 332.8685 318.5464 294.1711 297.9156 267.2952 250.2473 240.5379 263.1531 256.5176 252.1563 245.2982 242.1333 241.911 245.3321 249.5686 250.5817 251.009 258.5475 264.4705 269.0698 277.0964 282.6186 286.5595 300.9752 304.0797 319.401 328.2172 372.0584 386.8461 361.0417 387.4383 388.1092 380.1834 437.3925 432.5526 381.4622 422.823 429.1447 397.3545 388.8894 369.7169 385.1181 376.7101 371.9297 366.8203 379.9937 373.7849 368.9594 363.162 358.7734 375.9914 369.2354 380.1061 390.694 377.2798 372.4835 354.056 358.7162 360.297 349.9944 341.7694 333.2258 334.8639 349.2593 337.693 339.86 343.212 346.0257 344.9668 352.8365 356.1822 368.0922 363.1502 376.3182 381.6846 365.9537 379.3178 389.2632 378.4748 411.0491 419.2708 427.4269 434.7946 425.8401 431.3601 403.0498 391.1267 414.1639 422.4203 429.4369 432.3052 437.0764 441.1024 423.9156 417.6809 389.6392 404.0929 391.9793 405.4565 434.1544 393.8961 410.8978 417.929 430.2159 465.8909 472.6851 484.3098 490.045 475.8832 481.3735 509.4712 475.8058 469.8977 502.481 496.5451 490.7256 439.0245 409.6851 424.1467 380.0966 378.6863 391.0026 399.1378 415.8108 422.5536 450.2957 473.7114 510.8363 504.1906 495.2902 508.1896 501.3576 468.9448 467.5727 446.867 510.137 465.4198 450.7175 466.3065 434.0998 436.6807 488.6827 485.0249 478.2531 463.6139 453.323 446.7333 418.4826 412.7368 390.7545 387.834 385.6559
0 0 0 0 0 0 0 0 0 0 0 0 0 0 0 0 0 0 0 0 0 0 0 0 0 0 0 0 0 0 0 0 0 0 0 0 0 0 0 0 0 0 0 0 0 0 0 0 0 0 0 0 0 0 0 0 0 0 0 0 0 0 0 0 0 0 0 0 0 0 0 0 0 0 0 0 0 0 0 0 0 0 0 0 0 0 0 0 0 0 0 0 0 0 0 0 0 0 0 0 0 0 0 0 0 0 0 0 0 0 0 0 0 0 0 0 0 0 0 0 0 0 0 0 0 0 0 0 0 0 0 0 0 0 0 0 0 0 0 0 0 0 0 0 0 0 0 0 0 0 0 0 0 0 0 0 0 0 0 0 0 0 0 0 0 0 0 0 0 0 0 0 0 0 0 0 0 0 0 0 41.12696 138.7675 181.3063 128.8164 98.13411 167.241 135.0997 88.35503 104.3331 39.9543 72.09258 69.0485 89.80294 82.48205 91.64524 114.2776 110.7498 77.77937 100.4445 155.4213 144.7333 80.13943 81.95612 96.65569 69.14739 105.4216 72.23324 133.3685 222.8777 146.4344 184.205 179.5484 201.2234 286.9324 329.5186 295.2584 259.5735 253.7828 165.8313 158.9181 178.0209 147.3132 165.8009 256.1753 181.6523 217.5485 308.7855 333.4673 364.1508 300.5329 364.1997 317.964 364.1381 406.6926 416.8936 419.4751 369.2285 288.2834 422.7838 392.0594 489.4825 533.3299 428.5876 384.3018 499.9281 506.8804 508.0849 466.6389 482.982 405.6761 418.9949 403.2511 362.0504 396.1974 361.777 402.4624 441.9328 462.9611 412.4556 331.9052 389.7851 487.847 502.8837 433.292 435.8551 296.0549 330.0018 407.7769 423.2839 362.0892 328.6123 343.1604 337.3264 303.2026 364.4986 396.7337 378.5795 384.9459 387.3497 391.267 372.0821 409.5685 349.8877 345.2009 293.7122 273.5851 269.0384 249.8154 238.8428 264.441 266.5683 265.314 258.7128 251.244 251.1895 241.2158 242.4489 242.6452 244.9027 246.11 249.3382 274.9618 278.7512 291.7031 300.5326 301.5921 307.5073 311.3141 331.0904 328.8829 352.2867 421.1324 407.3456 396.4882 421.2476 435.4588 378.6808 425.3801 427.676 430.9812 395.1216 411.4845 379.603 380.5274 393.7109 400.6402 387.2512 384.4001 373.051 359.4987 381.8895 364.8407 408.2665 397.0405 370.1196 361.2459 360.4264 363.6138 360.399 378.1832 389.9716 372.766 339.3504 336.6568 336.2385 344.2961 346.463 358.3219 351.5424 353.7541 357.9682 349.5921 354.4737 354.0041 364.8055 378.5284 383.7049 371.423 374.0664 381.6181 396.195 413.1823 405.2921 408.5654 410.9005 411.4711 412.0337 420.9367 399.6642 413.1907 408.3909 424.1326 422.4781 422.7907 427.6191 410.4142 410.0272 427.3733 417.6418 393.223 394.9592 400.6698 408.9046 402.6812 416.1216 434.883 445.6518 454.817 497.4862 498.0674 487.629 500.1139 493.3533 503.1666 474.2363 490.2965 491.9231 487.8858 452.1504 447.4205 471.7393 383.8619 382.147 385.5582 397.0642 419.1978 425.8743 437.3384 477.1128 469.7382 506.1328 487.4209 500.7703 478.6612 460.6617 463.9838 478.5474 502.9816 500.4247 497.7785 460.263 426.6347 489.0389 483.6546 470.1524 473.9812 456.4721 455.7098 433.3796 412.8655 404.9868 410.0666 389.7408 390.0017
0 0 0 0 0 0 0 0 0 0 0 0 0 0 0 0 0 0 0 0 0 0 0 0 0 0 0 0 0 0 0 0 0 0 0 0 0 0 0 0 0 0 0 0 0 0 0 0 0 0 0 0 0 0 0 0 0 0 0 0 0 0 0 0 0 0 0 0 0 0 0 0 0 0 0 0 0 0 0 0 0 0 0 0 0 0 0 0 0 0 0 0 0 0 0 0 0 0 0 0 0 0 0 0 0 0 0 0 0 0 0 0 0 0 0 0 0 0 0 0 0 0 0 0 0 0 0 0 0 0 0 0 0 0 0 0 0 0 0 0 0 0 0 0 0 0 0 0 0 0 0 0 0 0 0 0 0 0 0 0 0 0 0 0 0 0 0 0 0 0 0 0 0 0 0 0 0 0 0 0 0.1098717 66.87069 164.8023 173.0535 123.5177 164.6697 185.4307 126.8405 132.1896 76.70071 45.96814 71.96734 76.55785 61.12333 64.37145 85.18577 72.49571 85.84971 122.8104 158.3972 127.2812 70.3185 64.53238 63.83076 66.50851 69.00819 119.8933 128.66 129.6023 97.04256 119.0977 105.0505 153.2333 260.8196 279.6807 249.8179 229.8567 279.5352 223.7753 143.019 140.6778 135.3366 216.8873 188.7919 200.357 234.9351 244.2205 255.3692 288.6556 311.2864 297.9578 256.0188 345.1548 312.1935 329.2982 333.0723 361.5858 281.2025 373.3622 298.7157 393.8186 488.4238 455.4345 398.0152 420.2719 457.9932 521.2395 518.1438 492.6604 436.9781 439.1541 436.8323 455.6096 460.4242 418.1194 454.3523 434.0941 376.7862 361.8705 396.9941 434.9017 475.1523 525.3846 523.9979 450.3154 390.5392 389.52 466.6042 441.456 386.0225 381.4271 412.6519 377.7534 376.2722 332.9348 424.712 442.4847 440.3551 428.0152 390.937 376.1924 361.0274 370.9749 332.6577 287.7067 273.8018 257.5937 254.7159 240.442 261.7911 267.9008 271.1671 263.8246 255.679 252.8644 251.8112 251.4037 245.5648 246.0935 244.8417 249.94 254.2295 259.8684 280.4568 284.9341 295.4843 301.4131 303.4332 320.8349 374.0076 362.8584 424.9393 431.5875 441.9586 402.7141 440.6895 421.8438 410.2359 463.9091 442.1579 396.2671 434.9271 406.5782 411.2261 390.7773 391.7013 380.6315 370.7751 367.0515 392.5927 409.5262 386.3849 399.9602 393.6855 399.6975 384.7135 364.8043 377.595 366.5716 376.0005 374.2006 375.9266 340.955 338.0179 337.2363 346.2772 337.2611 349.0736 342.87 360.1293 354.9726 356.3014 353.7885 361.22 359.1194 369.188 368.7427 382.5864 372.901 373.6721 409.7148 413.0378 425.592 424.6549 407.1443 408.8595 421.5253 408.1439 423.7326 401.8602 402.6252 409.5593 429.2539 418.7371 426.0151 430.0164 405.9097 420.5274 413.4393 414.3502 404.9067 398.6156 426.1948 407.6953 408.6636 423.9377 442.4616 458.1939 458.7749 455.2537 501.9302 511.3495 488.3298 482.8628 483.8304 507.8087 492.8951 496.5165 467.3098 451.103 415.3012 386.9211 382.5658 386.4706 403.0905 404.661 421.6816 456.9258 468.2929 519.074 495.5433 494.5522 484.9673 458.7591 479.8277 474.289 508.407 494.0704 488.3722 484.2744 462.4869 459.2042 495.4174 478.1635 470.729 454.2516 455.369 439.5015 428.429 414.8679 413.9876 404.4426 418.1758 389.0143
0 0 0 0 0 0 0 0 0 0 0 0 0 0 0 0 0 0 0 0 0 0 0 0 0 0 0 0 0 0 0 0 0 0 0 0 0 0 0 0 0 0 0 0 0 0 0 0 0 0 0 0 0 0 0 0 0 0 0 0 0 0 0 0 0 0 0 0 0 0 0 0 0 0 0 0 0 0 0 0 0 0 0 0 0 0 0 0 0 0 0 0 0 0 0 0 0 0 0 0 0 0 0 0 0 0 0 0 0 0 0 0 0 0 0 0 0 0 0 0 0 0 0 0 0 0 0 0 0 0 0 0 0 0 0 0 0 0 0 0 0 0 0 0 0 0 0 0 0 0 0 0 0 0 0 0 0 0 0 0 0 0 0 0 0 0 0 0 0 0 0 0 0 0 0 0 0 0 0 0 0 13.75793 63.65802 78.90129 131.8519 146.3936 199.135 140.4062 103.9629 66.8358 51.69156 50.80076 73.16415 60.86589 119.0204 71.59644 77.18513 89.06834 99.08755 114.6729 109.4981 78.42602 55.34855 65.51544 113.1949 123.7368 155.6742 97.65996 94.73739 71.11697 129.8117 172.9449 199.2552 157.2881 209.3152 185.0332 195.7504 199.7206 263.4671 214.0084 141.3971 151.2409 206.5641 176.1339 187.3183 207.519 212.8125 237.7797 187.6172 273.1052 259.1215 259.1805 288.881 246.2978 237.7328 255.2361 263.5853 228.1278 306.7566 275.2543 350.2519 431.4935 522.4815 456.7498 405.4279 438.1642 489.135 525.7298 515.9139 476.3166 431.9891 443.7417 471.5005 497.8376 471.5464 459.4379 495.3011 424.2126 442.1236 362.2642 442.4429 467.2267 509.4512 505.4186 566.1112 547.5327 479.7872 528.0209 510.8624 463.4617 386.5426 416.2896 440.5347 433.1117 428.5722 383.9065 437.5243 478.1395 435.6559 427.4536 370.8656 349.2232 309.347 338.0141 325.1899 319.2488 300.1089 269.5648 246.8072 257.5881 265.7699 270.373 265.0061 261.9213 257.8269 257.5413 252.5396 248.993 248.0329 246.7322 246.6833 263.6721 276.6605 280.3137 281.7568 282.6775 286.868 292.9926 310.156 348.1255 409.5966 421.301 425.9925 421.8555 451.4123 398.1282 437.5062 425.2715 458.9748 443.8643 436.529 433.786 414.5164 434.5598 416.3299 389.9421 372.6023 377.8147 370.9886 411.9028 384.9156 404.3065 407.1432 411.5667 393.5781 412.1759 363.8449 390.1443 369.7926 367.7013 366.7737 346.2966 340.6363 341.4129 341.6216 342.5673 351.554 343.0739 348.7405 355.5709 355.4742 359.2002 367.172 356.8325 364.7402 367.3956 367.4829 363.5712 373.893 379.7053 382.1012 412.9008 428.05 437.3188 415.2209 414.27 427.123 429.2621 413.2321 423.9657 435.0128 410.7083 430.2467 435.1729 428.3521 440.4065 437.6668 446.7396 437.2865 404.6125 397.4843 400.5985 407.2856 442.0987 406.5254 420.2698 434.1533 426.7914 458.2762 452.0567 476.2075 510.9019 495.8009 487.4056 484.5444 495.0212 503.5394 486.7202 481.0437 444.8879 432.9828 384.8383 383.4046 393.9451 401.4594 416.3342 427.6355 455.0347 477.6616 509.826 491.7506 486.387 470.5452 491.1301 481.019 501.0508 513.1342 495.0539 481.7271 463.061 437.281 496.8498 487.2503 481.9971 458.8609 447.3595 432.0065 431.1358 428.3411 421.8632 409.0121 413.5265 402.6863 390.927
0 0 0 0 0 0 0 0 0 0 0 0 0 0 0 0 0 0 0 0 0 0 0 0 0 0 0 0 0 0 0 0 0 0 0 0 0 0 0 0 0 0 0 0 0 0 0 0 0 0 0 0 0 0 0 0 0 0 0 0 0 0 0 0 0 0 0 0 0 0 0 0 0 0 0 0 0 0 0 0 0 0 0 0 0 0 0 0 0 0 0 0 0 0 0 0 0 0 0 0 0 0 0 0 0 0 0 0 0 0 0 0 0 0 0 0 0 0 0 0 0 0 0 0 0 0 0 0 0 0 0 0 0 0 0 0 0 0 0 0 0 0 0 0 0 0 0 0 0 0 0 0 0 0 0 0 0 0 0 0 0 0 0 0 0 0 0 0 0 0 0 0 0 0 0 0 0 0 0 0 0 0 0 11.37299 89.8157 168.9965 210.0605 183.6051 137.1339 108.0863 101.6924 79.93207 58.00019 95.37618 119.8821 97.78764 92.38152 86.00116 123.7126 153.015 129.2632 116.4251 49.5697 61.49579 114.5395 153.8122 76.74254 58.06757 135.2625 116.8853 95.50924 156.0425 141.8691 139.4277 198.5222 158.4911 144.3053 206.0368 236.0934 227.2514 158.0369 167.0795 233.9569 171.2242 150.519 131.8672 193.7495 199.9928 184.6758 277.2101 222.3776 267.8824 328.4394 254.3054 200.3169 197.1757 208.1521 213.0306 280.0199 253.3658 285.6516 334.893 452.6574 524.5104 511.164 444.6669 469.0323 502.2356 473.8763 445.7725 457.2863 428.4745 416.5328 472.6112 543.3214 530.3658 483.5887 489.955 434.571 382.3452 396.0866 465.286 429.5864 507.5078 515.9002 497.5046 517.9724 564.4082 568.1674 516.9824 448.3501 511.7261 468.328 455.0398 449.8311 426.8404 440.5809 460.2367 445.576 419.1708 374.9771 361.6947 410.4494 362.3578 314.7919 302.8044 285.2888 259.9266 246.3662 255.6662 260.1511 277.9922 287.719 276.8886 274.8254 262.5899 258.4547 257.3621 250.5521 250.5302 248.9756 260.5851 270.6819 294.6529 283.1353 309.6969 304.2339 301.8697 303.5987 325.8324 388.658 417.9397 449.2199 426.8771 419.284 435.5583 460.8125 473.6368 438.4249 458.1081 438.1708 438.4842 429.0885 425.5271 393.3005 378.0155 383.0049 426.1546 410.9705 430.7906 426.1571 415.0948 420.1011 403.343 423.3834 416.6382 405.3863 387.3134 382.637 374.6096 353.0523 345.8997 343.2388 342.9789 343.2535 343.5329 349.1783 354.4831 356.22 347.2266 355.4046 360.0311 372.6701 362.0656 367.2302 380.2956 386.2782 375.6933 376.9735 377.9834 387.9428 389.5008 430.1337 435.0675 414.2809 422.4971 433.2256 438.9465 423.5286 438.0737 442.365 414.1951 423.7895 441.9322 438.0616 440.3336 439.5091 445.1137 423.5353 426.6792 402.6938 399.5727 448.7439 423.5425 440.6977 412.9789 413.8859 434.3801 431.1267 455.1319 471.8981 491.4016 494.4334 462.6281 463.8231 477.357 493.1697 500.7185 481.1277 454.3672 427.0222 386.1763 384.5357 394.8565 404.2727 416.4082 433.1789 442.9622 472.2169 497.5338 488.6975 492.7982 489.969 469.0927 480.5929 492.5464 509.8579 487.8255 478.1664 444.6621 496.8694 470.9826 470.1059 463.538 433.3621 469.9694 444.0416 425.5026 423.384 406.0578 407.8347 403.5931 394.2666 393.5164
0 0 0 0 0 0 0 0 0 0 0 0 0 0 0 0 0 0 0 0 0 0 0 0 0 0 0 0 0 0 0 0 0 0 0 0 0 0 0 0 0 0 0 0 0 0 0 0 0 0 0 0 0 0 0 0 0 0 0 0 0 0 0 0 0 0 0 0 0 0 0 0 0 0 0 0 0 0 0 0 0 0 0 0 0 0 0 0 0 0 0 0 0 0 0 0 0 0 0 0 0 0 0 0 0 0 0 0 0 0 0 0 0 0 0 0 0 0 0 0 0 0 0 0 0 0 0 0 0 0 0 0 0 0 0 0 0 0 0 0 0 0 0 0 0 0 0 0 0 0 0 0 0 0 0 0 0 0 0 0 0 0 0 0 0 0 0 0 0 0 0 0 0 0 0 0 0 0 0 0 0 0 0 0 0.622795 75.76823 161.1356 182.633 180.3076 148.5461 150.0917 107.7388 126.2047 74.0812 84.83132 118.1027 112.3564 135.4989 97.82098 144.5814 190.52 132.3237 49.43242 54.69692 111.6305 99.26067 61.75471 95.72063 149.3415 68.22073 63.95931 88.1302 144.4286 190.2311 202.0419 166.908 125.6137 173.7322 149.3949 215.1584 122.1345 199.7656 224.0739 227.8806 141.827 135.094 146.0265 145.2609 191.3086 294.1796 205.3432 248.0134 271.341 279.4884 260.4281 168.6438 190.1828 256.2742 259.7881 234.7309 249.7365 307.0315 448.8525 512.7662 522.1668 488.9604 371.9883 431.014 468.0247 390.0474 362.3826 357.496 384.9573 410.8953 448.0255 480.5613 529.4049 507.0057 415.5653 366.9604 389.3878 390.6584 472.258 428.6886 484.7372 518.5795 510.386 549.8684 545.3784 529.7018 526.3962 549.1323 499.3094 515.3724 476.5335 446.2581 465.4539 420.8083 373.2964 359.0291 371.3769 418.9134 432.7079 388.1083 382.8029 366.2732 296.0851 293.0037 256.5341 248.5354 258.7307 273.3612 298.0928 302.1263 307.5642 284.593 287.9501 294.9663 266.1304 250.8876 251.5105 248.1969 264.6702 266.2133 288.9112 290.6474 307.787 304.1554 305.7484 311.2317 332.6414 357.9349 395.4218 422.6379 469.7714 484.1256 482.0031 446.2917 429.6309 457.6923 448.3451 421.7331 409.8764 393.5627 378.3614 390.2489 428.1089 437.8647 429.3968 438.2271 425.4867 418.2617 422.9801 422.7367 434.3606 405.6841 396.9395 368.2413 379.6787 365.5374 347.6565 345.1733 347.3928 343.7221 344.6009 345.054 346.5912 351.8026 361.5115 362.5045 354.7934 358.8504 365.9276 365.4042 373.0028 377.0253 372.4691 383.2125 384.4267 375.9769 393.9913 399.4683 402.9142 402.2454 406.2446 422.6951 427.8231 419.1829 422.2952 425.4939 454.4572 459.7879 440.5043 421.5807 442.7116 451.7686 461.2493 433.3438 455.5027 447.6295 419.8106 401.8244 433.2077 420.8951 457.1794 429.7415 444.9548 421.5497 443.5148 460.8801 460.1805 458.1992 476.5156 456.2458 488.3689 494.0201 483.7213 506.9662 451.6476 458.9 489.4611 390.8821 386.6571 391.5133 410.4586 414.5362 434.5884 449.263 481.9887 468.1273 489.722 500.9144 500.2874 493.5035 474.222 504.8522 467.5645 470.3037 450.0497 507.061 495.9896 469.6745 456.0948 446.6673 482.8738 457.864 441.0667 428.6129 426.4569 420.4336 410.668 401.48 422.1026 398.5111
